# .PCD v0.7 - Point Cloud Data file format
VERSION 0.7
FIELDS x y z rgba
SIZE 4 4 4 4
TYPE F F F U
COUNT 1 1 1 1
WIDTH 63
HEIGHT 1
VIEWPOINT 0 0 0 1 0 0 0
POINTS 63
DATA ascii
-0.076009765 -0.14913654 0.87097889 20275649
-0.087225705 -0.14895183 0.86041123 20275649
-0.089225069 -0.14915586 0.85988468 20275649
-0.080939606 -0.14847505 0.87411875 20275649
-0.086908162 -0.14742145 0.86306888 20275649
-0.073938251 -0.13450223 0.86779237 20275649
-0.07644549 -0.11903708 0.8577351 20275649
-0.06893383 -0.11367547 0.85747063 20275649
-0.076465234 -0.13381422 0.86279458 20275649
-0.080421567 -0.13246229 0.86185449 20275649
-0.079122528 -0.13241351 0.86300182 20275649
-0.075735405 -0.13195068 0.86194897 20275649
-0.076892897 -0.13005218 0.85808921 20275649
-0.074903488 -0.12986755 0.85849792 20275649
-0.07476218 -0.1279301 0.85578609 20275649
-0.072080225 -0.12761356 0.85545933 20275649
-0.071932957 -0.12568778 0.85275346 20275649
-0.069954336 -0.12550758 0.85315329 20275649
-0.070501849 -0.12372173 0.8511821 20275649
-0.068526164 -0.12354342 0.85157949 20275649
-0.065161988 -0.12310528 0.85050851 20275649
-0.070468351 -0.12201981 0.8510716 20275649
-0.067098215 -0.12158736 0.8500064 20275649
-0.063736826 -0.12115521 0.84893316 20275649
-0.070434526 -0.12031791 0.85096091 20275649
-0.068458945 -0.12014379 0.85135859 20275649
-0.064399049 -0.11959129 0.84955591 20275649
-0.07109946 -0.11874031 0.85158008 20275649
-0.068425268 -0.11844388 0.8512482 20275649
-0.06506145 -0.1180235 0.8501783 20275649
-0.08043626 -0.11243873 0.80993825 23773826
-0.081339657 -0.11216313 0.80774289 23773826
-0.07864818 -0.10954869 0.80730665 23773826
-0.082361862 -0.10840382 0.80889326 23773826
-0.085554346 -0.10914447 0.80991173 23773826
-0.086228669 -0.10807578 0.80390787 23773826
-0.083780602 -0.10624308 0.80727261 23773826
-0.085260466 -0.10621872 0.80587798 23773826
-0.087308183 -0.10645115 0.80528951 23773826
-0.056232244 -0.1051918 0.80425048 27206467
-0.0646898 -0.047129892 0.82601225 30704644
-0.069425225 -0.057920758 0.87481898 17425861
-0.10834069 -0.065550901 0.98987246 20858502
-0.081566766 -0.1185742 0.9992848 24356679
-0.090203106 -0.062658422 1.0152299 27789320
-0.09719874 -0.11613107 0.98229206 31287753
-0.083175108 -0.11351021 0.9663114 18008714
-0.095870644 -0.1010047 0.98101974 21441355
-0.095930867 -0.10091827 0.97750026 21441355
-0.095462047 -0.10076118 0.97483188 21441355
-0.098428346 -0.099489495 0.97753191 21441355
-0.098493829 -0.099410102 0.97401708 21441355
-0.096953914 -0.099109344 0.97304267 21441355
-0.099378251 -0.097762622 0.97658551 21441355
-0.098907784 -0.097613283 0.97391742 21441355
-0.096291803 -0.097159721 0.97463238 21441355
-0.099321693 -0.095816448 0.97381794 21441355
-0.096169062 -0.095280722 0.97537696 21441355
-0.098783523 -0.10247816 0.97856992 21441355
-0.097970843 -0.10022676 0.97763222 21441355
-0.08960674 -0.11875229 0.98188794 24939532
-0.083766282 -0.092917554 0.96693903 28437965
-0.090335682 -0.097270101 0.97165304 31870606
