# .PCD v0.7 - Point Cloud Data file format
VERSION 0.7
FIELDS x y z rgba
SIZE 4 4 4 4
TYPE F F F U
COUNT 1 1 1 1
WIDTH 1138
HEIGHT 1
VIEWPOINT 0 0 0 1 0 0 0
POINTS 1138
DATA ascii
-0.095606834 0.10771943 1.0839031 26105494
-0.098177865 0.10669578 1.0838611 26105494
-0.10011816 0.10619486 1.0832236 26105494
-0.10205576 0.10569366 1.0825884 26105494
-0.10399021 0.10519261 1.0819559 26105494
-0.10592182 0.10469139 1.081326 26105494
-0.10785089 0.10419012 1.080699 26105494
-0.10915922 0.10421161 1.0794668 26105494
-0.110467 0.10423324 1.078234 26105494
-0.11239016 0.10373182 1.0776126 26105494
-0.11369695 0.1037534 1.0763814 26105494
-0.11500351 0.10377491 1.07515 26105494
-0.11692093 0.10327344 1.0745342 26105494
-0.11822598 0.10329495 1.0733044 26105494
-0.11953123 0.10331658 1.0720747 26105494
-0.12144281 0.10281501 1.0714638 26105494
-0.12335114 0.10231347 1.0708559 26105494
-0.12465356 0.10233486 1.069629 26105494
-0.12655781 0.10183332 1.069025 26105494
-0.1284592 0.10133156 1.068424 26105494
-0.12975876 0.10135292 1.0671995 26105494
-0.13105832 0.10137437 1.0659752 26105494
-0.13235755 0.10139585 1.0647507 26105494
-0.13365711 0.10141717 1.0635266 26105494
-0.13495658 0.1014386 1.0623021 26105494
-0.13566397 0.10198329 1.0604448 26105494
-0.13696502 0.10200467 1.0592191 26105494
-0.13885473 0.10150276 1.058629 26105494
-0.13956662 0.10204766 1.0567675 26105494
-0.14086737 0.10206904 1.055542 26105494
-0.14216845 0.10209043 1.054316 26105494
-0.14346929 0.10211194 1.0530903 26105494
-0.14477037 0.10213331 1.0518646 26105494
-0.14665161 0.10163126 1.0512829 26105494
-0.14795093 0.10165265 1.0500581 26105494
-0.14867304 0.10219762 1.0481875 26105494
-0.14997374 0.10221913 1.0469618 26105494
-0.15127449 0.10224048 1.0457361 26105494
-0.15200259 0.10278548 1.04386 26105494
-0.15330468 0.10280696 1.0426326 26105494
-0.15403686 0.10335202 1.0407526 26105494
-0.1553406 0.10337345 1.0395241 26105494
-0.15607713 0.10391874 1.0376396 26105494
-0.15681665 0.10446382 1.0357528 26105494
-0.15755863 0.10500903 1.0338628 26105494
-0.15830408 0.10555432 1.0319703 26105494
-0.159052 0.1060997 1.0300753 26105494
-0.15980275 0.10664504 1.0281773 26105494
-0.16055678 0.1071905 1.0262766 26105494
-0.16131334 0.10773598 1.0243733 26105494
-0.16207288 0.10828147 1.0224671 26105494
-0.16338979 0.1083032 1.0212264 26105494
-0.16415368 0.10884876 1.019316 26105494
-0.16492032 0.10939441 1.0174034 26105494
-0.16514011 0.11046404 1.0148156 26105494
-0.16591419 0.1110099 1.0128958 26105494
-0.16559704 0.1126036 1.0096235 26105494
-0.16637956 0.11314961 1.0076954 26105494
-0.16607665 0.11474357 1.0044096 26105494
-0.16686817 0.11528961 1.0024738 26105494
-0.16657983 0.11688385 0.99917406 26105494
-0.16683976 0.11795419 0.99654824 26105494
-0.16656734 0.11954881 0.99323374 26105494
-0.1668406 0.1206192 0.99059552 26105494
-0.16604839 0.12273828 0.98658031 26105494
-0.16526787 0.12485737 0.98255414 26105494
-0.16449873 0.12697682 0.978517 26105494
-0.1632099 0.12962064 0.97377938 26105494
-0.16140608 0.1327889 0.96833664 26105494
-0.16014753 0.13543326 0.9635703 26105494
-0.15784989 0.13912645 0.95740253 26105494
-0.15557249 0.14282009 0.95121521 26105494
-0.15279143 0.14703825 0.94431263 26105494
-0.024413094 0.14511874 1.0698595 26105494
-0.03303425 0.1393775 1.0748193 26105494
-0.038356915 0.13625622 1.0769405 26105494
-0.044313863 0.13261053 1.079653 26105494
-0.048949853 0.13001266 1.0812321 26105494
-0.052922055 0.12793881 1.0822468 26105494
-0.056235537 0.12638885 1.0826933 26105494
-0.05953972 0.12483879 1.0831475 26105494
-0.062835559 0.12328846 1.0836105 26105494
-0.066122815 0.12173816 1.0840814 26105494
-0.06940113 0.12018765 1.0845602 26105494
-0.07267116 0.118637 1.0850475 26105494
-0.074654028 0.11813489 1.0843682 26105494
-0.077271849 0.11710841 1.0842805 26105494
-0.079884127 0.11608172 1.0841978 26105494
-0.082490265 0.11505493 1.084121 26105494
-0.085090816 0.11402806 1.0840497 26105494
-0.088317335 0.11247686 1.0845776 26105494
-0.090904713 0.11144976 1.0845182 26105494
-0.09285751 0.11094708 1.0838675 26105494
-0.09480767 0.1104444 1.0832195 26105494
-0.097380787 0.1094171 1.0831742 26105494
-0.099947825 0.10838968 1.0831337 26105494
-0.10188627 0.10788677 1.0824966 26105494
-0.10444346 0.10685927 1.0824659 26105494
-0.10637464 0.10635623 1.0818357 26105494
-0.10768449 0.10637773 1.0806019 26105494
-0.10961123 0.1058748 1.0799756 26105494
-0.11091949 0.10589624 1.0787432 26105494
-0.11284178 0.10539312 1.0781209 26105494
-0.11414845 0.10541464 1.0768898 26105494
-0.1160668 0.10491138 1.076272 26105494
-0.11737181 0.10493297 1.0750418 26105494
-0.11867701 0.10495437 1.073812 26105494
-0.12058963 0.10445108 1.0731995 26105494
-0.12189303 0.10447261 1.0719709 26105494
-0.1238016 0.10396907 1.0713627 26105494
-0.12570669 0.10346565 1.0707569 26105494
-0.12700744 0.1034872 1.069531 26105494
-0.12890847 0.10298357 1.0689294 26105494
-0.13020794 0.10300492 1.0677052 26105494
-0.13150714 0.10302649 1.0664809 26105494
-0.13280679 0.10304781 1.0652564 26105494
-0.13410623 0.10306921 1.0640321 26105494
-0.13540553 0.10309068 1.0628073 26105494
-0.13670526 0.10311208 1.0615833 26105494
-0.13800453 0.10313348 1.0603588 26105494
-0.139304 0.10315485 1.0591345 26105494
-0.1400163 0.10370139 1.0572739 26105494
-0.14190273 0.10319772 1.0566857 26105494
-0.14320205 0.10321904 1.0554612 26105494
-0.14450155 0.10324047 1.0542369 26105494
-0.14580105 0.10326188 1.0530126 26105494
-0.14710049 0.10328332 1.0517883 26105494
-0.14840011 0.10330471 1.0505638 26105494
-0.14969961 0.10332609 1.0493395 26105494
-0.15042351 0.10387296 1.0474679 26105494
-0.15172432 0.10389427 1.0462425 26105494
-0.15245257 0.10444114 1.0443666 26105494
-0.15375523 0.10446263 1.0431395 26105494
-0.15505739 0.10448409 1.0419126 26105494
-0.15579145 0.10503102 1.0400314 26105494
-0.15652828 0.10557801 1.0381477 26105494
-0.15726827 0.10612494 1.0362611 26105494
-0.15801097 0.10667209 1.0343721 26105494
-0.15819438 0.10774476 1.0318208 26105494
-0.15894429 0.10829196 1.0299244 26105494
-0.15969698 0.10883925 1.0280259 26105494
-0.16045253 0.10938654 1.0261242 26105494
-0.1612113 0.10993383 1.0242202 26105494
-0.16252784 0.10995556 1.0229793 26105494
-0.1632912 0.11050303 1.0210712 26105494
-0.16405712 0.11105032 1.0191603 26105494
-0.16482584 0.11159793 1.0172467 26105494
-0.16504766 0.1126712 1.0146585 26105494
-0.16527565 0.11374473 1.0120649 26105494
-0.16550939 0.11481815 1.0094657 26105494
-0.16574909 0.11589176 1.0068617 26105494
-0.16490699 0.11801719 1.0028977 26105494
-0.1657028 0.11856524 1.000958 26105494
-0.16542052 0.12016516 0.99765581 26105494
-0.16568594 0.12123909 0.99502712 26105494
-0.16595729 0.12231333 0.99239272 26105494
-0.16677062 0.12286151 0.99043697 26105494
-0.16598199 0.12498798 0.9864226 26105494
-0.16573845 0.12658837 0.98308402 26105494
-0.1644391 0.12924117 0.97836107 26105494
-0.16368525 0.1313681 0.97431415 26105494
-0.1618842 0.13454744 0.96887475 26105494
-0.16010047 0.13772708 0.96341938 26105494
-0.15728132 0.14195937 0.95656019 26105494
-0.15396051 0.14671811 0.94898528 26105494
-0.029592648 0.14431527 1.071934 26105494
-0.036879793 0.13960522 1.0757635 26105494
-0.043489262 0.13542092 1.0790424 26105494
-0.048775628 0.13228783 1.0811918 26105494
-0.052747354 0.1302067 1.0822027 26105494
-0.056060091 0.12865132 1.0826457 26105494
-0.060010597 0.12656975 1.0836775 26105494
-0.063304469 0.12501392 1.0841384 26105494
-0.066590443 0.12345809 1.0846078 26105494
-0.069867298 0.12190212 1.0850852 26105494
-0.073135868 0.12034596 1.0855708 26105494
-0.07511811 0.11984207 1.0848906 26105494
-0.077735081 0.1188117 1.0848019 26105494
-0.080346137 0.11778142 1.084718 26105494
-0.082951576 0.11675107 1.0846403 26105494
-0.084918261 0.11624677 1.0839753 26105494
-0.088144824 0.11468995 1.0845003 26105494
-0.090732589 0.11365927 1.0844386 26105494
-0.09268631 0.11315484 1.0837858 26105494
-0.09463729 0.11265031 1.0831361 26105494
-0.097210988 0.11161933 1.0830877 26105494
-0.099778518 0.1105883 1.0830452 26105494
-0.10171801 0.11008353 1.0824063 26105494
-0.10365462 0.10957877 1.0817699 26105494
-0.10558823 0.10907409 1.0811365 26105494
-0.10751888 0.10856912 1.0805056 26105494
-0.10944648 0.10806427 1.0798774 26105494
-0.11137164 0.10755936 1.079252 26105494
-0.11267953 0.10758083 1.0780196 26105494
-0.11460018 0.10707579 1.0773983 26105494
-0.11590706 0.10709734 1.0761671 26105494
-0.11721356 0.10711882 1.0749359 26105494
-0.11912833 0.10661382 1.0743203 26105494
-0.12043352 0.10663527 1.0730901 26105494
-0.12234376 0.10613004 1.0724783 26105494
-0.12425183 0.10562477 1.0718694 26105494
-0.12615643 0.10511953 1.0712628 26105494
-0.12745725 0.10514107 1.0700374 26105494
-0.12935759 0.10463559 1.0694351 26105494
-0.13065709 0.10465706 1.0682108 26105494
-0.13195644 0.10467846 1.0669861 26105494
-0.13266064 0.1052267 1.0651345 26105494
-0.13455521 0.10472126 1.0645375 26105494
-0.13585488 0.10474265 1.0633132 26105494
-0.13715409 0.10476404 1.062089 26105494
-0.13845383 0.10478542 1.0608644 26105494
-0.13975285 0.10480694 1.0596399 26105494
-0.14105265 0.10482831 1.0584157 26105494
-0.14176695 0.10537673 1.0565543 26105494
-0.14365159 0.10487107 1.0559671 26105494
-0.14495097 0.10489247 1.0547423 26105494
-0.14625023 0.10491399 1.0535181 26105494
-0.14754961 0.10493531 1.0522938 26105494
-0.14884923 0.10495672 1.0510695 26105494
-0.14957224 0.10550531 1.0491998 26105494
-0.15029822 0.10605394 1.0473275 26105494
-0.15160064 0.10607537 1.0461004 26105494
-0.15290289 0.10609693 1.0448735 26105494
-0.15363447 0.10664565 1.0429955 26105494
-0.15493838 0.10666702 1.0417674 26105494
-0.15567444 0.10721574 1.0398853 26105494
-0.15641336 0.10776462 1.0380008 26105494
-0.15715493 0.10831358 1.0361133 26105494
-0.15789972 0.1088625 1.0342233 26105494
-0.15864722 0.10941146 1.0323305 26105494
-0.15939789 0.10996052 1.0304351 26105494
-0.16015123 0.11050961 1.028537 26105494
-0.16034983 0.11158616 1.0259731 26105494
-0.16111051 0.11213533 1.0240681 26105494
-0.16187371 0.11268467 1.0221608 26105494
-0.16264017 0.1132339 1.0202501 26105494
-0.16340949 0.11378329 1.0183368 26105494
-0.16418158 0.11433261 1.0164213 26105494
-0.16440751 0.11540971 1.0138316 26105494
-0.16463946 0.11648681 1.0112364 26105494
-0.16487692 0.11756415 1.0086358 26105494
-0.16512053 0.11864147 1.0060294 26105494
-0.1642832 0.12077428 1.0020654 26105494
-0.16454093 0.12185187 0.99944538 26105494
-0.16534464 0.12240181 0.99749976 26105494
-0.16561277 0.12347954 0.99487072 26105494
-0.16642408 0.12402952 0.99291819 26105494
-0.16723804 0.12457965 0.99096268 26105494
-0.16645114 0.12671337 0.98695081 26105494
-0.16620918 0.12831932 0.98361391 26105494
-0.16491245 0.1309813 0.9788937 26105494
-0.16363017 0.13364354 0.97416013 26105494
-0.16130494 0.13736174 0.96803302 26105494
-0.15899955 0.14108059 0.96188635 26105494
-0.15618907 0.1453276 0.955028 26105494
-0.15287702 0.15010294 0.94745368 26105494
-0.028118685 0.14769173 1.0707693 26105494
-0.03540577 0.14296523 1.0745893 26105494
-0.04201521 0.13876641 1.0778599 26105494
-0.047952607 0.13509461 1.0805769 26105494
-0.052573159 0.13247833 1.0821595 26105494
-0.056532845 0.13038963 1.083178 26105494
-0.060480937 0.12830067 1.0842071 26105494
-0.063774034 0.12673941 1.0846667 26105494
-0.067058012 0.12517819 1.0851343 26105494
-0.070333317 0.12361658 1.0856097 26105494
-0.073600158 0.12205499 1.0860937 26105494
-0.07558243 0.12154912 1.0854132 26105494
-0.07819815 0.12051515 1.0853231 26105494
-0.080808505 0.1194812 1.0852382 26105494
-0.082778722 0.11897516 1.0845687 26105494
-0.085379079 0.11794095 1.0844939 26105494
-0.087973028 0.11690683 1.084424 26105494
-0.09056145 0.11587251 1.0843601 26105494
-0.092516199 0.11536611 1.0837054 26105494
-0.095094532 0.1143317 1.0836508 26105494
-0.097042084 0.11382527 1.083003 26105494
-0.098986715 0.11331881 1.0823581 26105494
-0.10092837 0.11281229 1.0817156 26105494
-0.10348815 0.11177743 1.0816786 26105494
-0.10542256 0.11127085 1.0810432 26105494
-0.10735409 0.11076418 1.0804105 26105494
-0.1092831 0.11025742 1.0797803 26105494
-0.11120884 0.10975071 1.0791531 26105494
-0.11251846 0.1097723 1.0779192 26105494
-0.1144399 0.10926539 1.0772958 26105494
-0.11574794 0.10928706 1.0760632 26105494
-0.11705612 0.10930855 1.074831 26105494
-0.11836414 0.10933004 1.0735984 26105494
-0.1202787 0.10882313 1.0729821 26105494
-0.12158518 0.10884465 1.0717509 26105494
-0.12349544 0.10833762 1.0711386 26105494
-0.12540238 0.10783056 1.0705287 26105494
-0.12730639 0.1073235 1.069922 26105494
-0.12860875 0.10734492 1.0686948 26105494
-0.13050865 0.10683776 1.0680921 26105494
-0.13180952 0.10685917 1.0668664 26105494
-0.13251595 0.10740926 1.0650134 26105494
-0.13441144 0.106902 1.0644147 26105494
-0.13512047 0.10745216 1.0625594 26105494
-0.13701294 0.1069449 1.0619633 26105494
-0.13831393 0.10696629 1.0607376 26105494
-0.1396151 0.10698766 1.0595119 26105494
-0.14091574 0.10700919 1.0582862 26105494
-0.14221655 0.10703055 1.0570605 26105494
-0.14351754 0.10705207 1.055835 26105494
-0.14481835 0.10707352 1.0546091 26105494
-0.14611919 0.10709492 1.0533834 26105494
-0.14684145 0.10764527 1.0515156 26105494
-0.14872111 0.10713784 1.0509317 26105494
-0.14944623 0.10768818 1.0490613 26105494
-0.15017398 0.10823864 1.0471883 26105494
-0.15147768 0.10826012 1.0459599 26105494
-0.15278141 0.10828165 1.0447311 26105494
-0.15351488 0.10883228 1.0428526 26105494
-0.15629928 0.10995508 1.0378547 26105494
-0.15760718 0.10997657 1.0366225 26105494
-0.15778951 0.11105659 1.0340762 26105494
-0.15853913 0.11160744 1.0321827 26105494
-0.15929137 0.11215831 1.0302863 26105494
-0.16004674 0.11270926 1.0283873 26105494
-0.16024797 0.11378958 1.0258231 26105494
-0.16101049 0.11434067 1.0239174 26105494
-0.16177581 0.11489176 1.0220089 26105494
-0.16254397 0.11544294 1.0200977 26105494
-0.16276352 0.11652354 1.0175157 26105494
-0.16353936 0.11707482 1.0155981 26105494
-0.16376926 0.1181555 1.0130067 26105494
-0.16400497 0.11923639 1.0104101 26105494
-0.16424654 0.12031732 1.0078077 26105494
-0.16449375 0.12139843 1.0052001 26105494
-0.16366161 0.12353868 1.001235 26105494
-0.1644644 0.12409029 0.99929136 26105494
-0.16473062 0.12517175 0.99666613 26105494
-0.16554068 0.12572357 0.99471539 26105494
-0.16581665 0.12680507 0.99208039 26105494
-0.16716973 0.12682748 0.99080592 26105494
-0.16638626 0.12896842 0.98679477 26105494
-0.16561459 0.13110971 0.98277253 26105494
-0.16432355 0.1337809 0.97805268 26105494
-0.16251652 0.13698208 0.9726308 26105494
-0.16019954 0.14071345 0.96650332 26105494
-0.15790184 0.14444503 0.96035665 26105494
-0.15457414 0.14923656 0.95280653 26105494
-0.15022449 0.15508837 0.94384462 26105494
-0.028607979 0.14949059 1.0713198 26105494
-0.035238042 0.14527726 1.0745628 26105494
-0.041845515 0.14106366 1.0778277 26105494
-0.047780588 0.13737911 1.0805392 26105494
-0.052400157 0.13475367 1.0821178 26105494
-0.05571337 0.13318723 1.0825553 26105494
-0.059662238 0.13109103 1.0835793 26105494
-0.062956408 0.12952444 1.0840342 26105494
-0.066241965 0.12795752 1.0844972 26105494
-0.070159361 0.12586075 1.0855517 26105494
-0.074064985 0.12376381 1.0866165 26105494
-0.076046512 0.12325621 1.0859354 26105494
-0.078661352 0.12221862 1.0858443 26105494
-0.081270531 0.12118096 1.0857587 26105494
-0.083240628 0.12067313 1.0850887 26105494
-0.085839376 0.11963532 1.0850124 26105494
-0.088432744 0.11859731 1.0849416 26105494
-0.091019973 0.11755946 1.0848761 26105494
-0.092974365 0.11705122 1.0842211 26105494
-0.094925657 0.11654309 1.0835688 26105494
-0.096874237 0.1160349 1.0829191 26105494
-0.098819956 0.11552656 1.0822723 26105494
-0.10076264 0.11501826 1.0816281 26105494
-0.10332251 0.11397979 1.0815885 26105494
-0.105258 0.11347138 1.080951 26105494
-0.10719064 0.11296288 1.0803165 26105494
-0.10912019 0.11245433 1.0796845 26105494
-0.11043292 0.11247594 1.0784478 26105494
-0.1117451 0.11249761 1.0772111 26105494
-0.11366908 0.11198891 1.0765848 26105494
-0.11498012 0.11201049 1.0753496 26105494
-0.11629112 0.11203212 1.0741143 26105494
-0.11820914 0.1115235 1.0734932 26105494
-0.12012444 0.11101464 1.0728748 26105494
-0.12143253 0.11103622 1.0716422 26105494
-0.12394635 0.10999698 1.0716465 26105494
-0.12525158 0.11001853 1.0704167 26105494
-0.12655677 0.11004011 1.0691867 26105494
-0.12786193 0.11006153 1.0679569 26105494
-0.12976418 0.10955254 1.0673509 26105494
-0.13106792 0.109574 1.0661223 26105494
-0.13177763 0.11012603 1.0642676 26105494
-0.13367538 0.109617 1.0636654 26105494
-0.13497938 0.10963843 1.0624371 26105494
-0.13687311 0.10912935 1.0618391 26105494
-0.13758685 0.10968141 1.0599799 26105494
-0.13947771 0.10917228 1.0593848 26105494
-0.14078017 0.10919378 1.0581579 26105494
-0.14208211 0.10921513 1.0569305 26105494
-0.14338462 0.10923667 1.0557036 26105494
-0.14468689 0.10925806 1.0544765 26105494
-0.14540939 0.10981026 1.0526094 26105494
-0.14671333 0.10983179 1.0513809 26105494
-0.14801709 0.10985328 1.0501525 26105494
-0.14874546 0.11040553 1.04828 26105494
-0.15005077 0.11042712 1.04705 26105494
-0.15135591 0.11044856 1.0458202 26105494
-0.15266101 0.11047009 1.0445905 26105494
-0.15339647 0.11102248 1.042711 26105494
-0.15470342 0.11104397 1.0414798 26105494
-0.15487657 0.11212755 1.0389442 26105494
-0.15562092 0.11268017 1.0370567 26105494
-0.15693183 0.11270166 1.0358214 26105494
-0.15711813 0.11378545 1.0332732 26105494
-0.15787105 0.11433817 1.0313776 26105494
-0.15918572 0.11435983 1.0301383 26105494
-0.15994315 0.11491267 1.0282385 26105494
-0.16014682 0.11599655 1.0256743 26105494
-0.16091134 0.11654953 1.0237675 26105494
-0.16112478 0.11763375 1.021194 26105494
-0.16189639 0.11818678 1.0192804 26105494
-0.16212033 0.11927103 1.0166972 26105494
-0.16289924 0.11982418 1.0147769 26105494
-0.16313319 0.12090869 1.0121839 26105494
-0.16337277 0.12199334 1.0095859 26105494
-0.16361783 0.12307798 1.0069818 26105494
-0.16386919 0.12416274 1.0043728 26105494
-0.1641262 0.12524754 1.0017581 26105494
-0.16492946 0.12580106 0.99981505 26105494
-0.16519646 0.12688622 0.99719065 26105494
-0.16600733 0.12743995 0.99524063 26105494
-0.16628431 0.12852505 0.99260682 26105494
-0.16710217 0.12907892 0.99065 26105494
-0.16632237 0.13122723 0.98663956 26105494
-0.16502194 0.1339075 0.98193365 26105494
-0.16373609 0.13658792 0.9772138 26105494
-0.16246472 0.13926846 0.9724806 26105494
-0.16015206 0.14301267 0.96635538 26105494
-0.15733354 0.14728883 0.95952111 26105494
-0.15401302 0.15209699 0.9519729 26105494
-0.14967157 0.15796888 0.94301444 26105494
-0.028444126 0.15182078 1.0713005 26105494
-0.035072044 0.14759281 1.0745375 26105494
-0.041026488 0.14389598 1.0772235 26105494
-0.047609791 0.13966721 1.0805027 26105494
-0.0515811 0.137564 1.0815015 26105494
-0.055541173 0.13546073 1.0825114 26105494
-0.059489682 0.13335708 1.0835321 26105494
-0.062783703 0.13178506 1.0839837 26105494
-0.06606929 0.13021281 1.0844438 26105494
-0.06998615 0.12810865 1.0854948 26105494
-0.073252812 0.12653598 1.0859723 26105494
-0.075873718 0.12549493 1.0858729 26105494
-0.07848911 0.12445367 1.0857794 26105494
-0.081732765 0.12288067 1.0862787 26105494
-0.08433497 0.12183929 1.0861976 26105494
-0.086300373 0.12132943 1.0855308 26105494
-0.088892505 0.12028795 1.085459 26105494
-0.09147884 0.11924631 1.0853925 26105494
-0.093432531 0.11873621 1.0847368 26105494
-0.095383555 0.1182263 1.084084 26105494
-0.09733142 0.11771632 1.0834336 26105494
-0.098654136 0.11773797 1.0821877 26105494
-0.10059756 0.11722789 1.0815413 26105494
-0.10253833 0.11671767 1.080898 26105494
-0.10509452 0.11567552 1.0808601 26105494
-0.10702787 0.11516532 1.0802236 26105494
-0.1083433 0.11518694 1.0789843 26105494
-0.11027218 0.11467659 1.0783515 26105494
-0.11219881 0.11416615 1.0777221 26105494
-0.11351131 0.11418775 1.0764854 26105494
-0.11482359 0.11420942 1.0752487 26105494
-0.11613609 0.11423097 1.0740123 26105494
-0.11805515 0.11372048 1.0733891 26105494
-0.11997156 0.1132099 1.0727689 26105494
-0.12128083 0.11323159 1.0715346 26105494
-0.12319283 0.11272082 1.0709186 26105494
-0.12450098 0.11274237 1.0696864 26105494
-0.12580903 0.11276396 1.0684538 26105494
-0.12771533 0.11225308 1.067843 26105494
-0.12902181 0.11227474 1.0666118 26105494
-0.13032864 0.11229617 1.0653806 26105494
-0.13163517 0.11231769 1.0641494 26105494
-0.13294195 0.1123393 1.0629184 26105494
-0.13424854 0.11236083 1.0616872 26105494
-0.1361445 0.11184988 1.0610859 26105494
-0.13744973 0.11187129 1.0598562 26105494
-0.13875468 0.11189292 1.0586262 26105494
-0.14005993 0.1119144 1.0573964 26105494
-0.14194901 0.11140332 1.056802 26105494
-0.1426705 0.11195747 1.0549369 26105494
-0.14397575 0.11197899 1.0537071 26105494
-0.14528094 0.11200038 1.0524774 26105494
-0.14658628 0.11202196 1.0512474 26105494
-0.14731501 0.1125761 1.0493753 26105494
-0.14862154 0.11259768 1.0481441 26105494
-0.14935471 0.11315189 1.0462682 26105494
-0.15066282 0.11317336 1.0450356 26105494
-0.15197103 0.11319489 1.043803 26105494
-0.15270995 0.11374924 1.0419216 26105494
-0.15401955 0.11377085 1.0406876 26105494
-0.15476285 0.1143252 1.0388017 26105494
-0.1555091 0.11487963 1.0369136 26105494
-0.15625827 0.11543424 1.0350227 26105494
-0.15700994 0.11598868 1.0331287 26105494
-0.15776514 0.11654324 1.0312324 26105494
-0.1590818 0.11656494 1.0299916 26105494
-0.15984099 0.11711959 1.028091 26105494
-0.16060309 0.11767433 1.0261879 26105494
-0.16081338 0.11876211 1.0236189 26105494
-0.16213591 0.11878391 1.0223732 26105494
-0.16180293 0.12040483 1.0191309 26105494
-0.16257967 0.12095974 1.0172141 26105494
-0.16280983 0.12204794 1.0146263 26105494
-0.16359399 0.12260289 1.0127027 26105494
-0.16383429 0.12369116 1.0101056 26105494
-0.1640806 0.1247795 1.0075028 26105494
-0.16433279 0.12586799 1.0048947 26105494
-0.16459067 0.12695646 1.0022812 26105494
-0.16539459 0.12751186 1.0003386 26105494
-0.16566272 0.12860063 0.99771541 26105494
-0.16593643 0.1296894 0.99508709 26105494
-0.16621618 0.1307784 0.99245304 26105494
-0.16650145 0.13186738 0.98981375 26105494
-0.16572647 0.1340231 0.98580283 26105494
-0.16496299 0.13617912 0.98178107 26105494
-0.16368105 0.13886878 0.97706288 26105494
-0.16241358 0.14155859 0.97233075 26105494
-0.1601059 0.14531556 0.9662084 26105494
-0.15781848 0.149073 0.96006697 26105494
-0.15345405 0.15496466 0.95114201 26105494
-0.14807533 0.16192394 0.9408018 26105494
-0.03425552 0.15044552 1.0739422 26105494
-0.040859565 0.14620236 1.077194 26105494
-0.046791598 0.14249226 1.0798936 26105494
-0.050117597 0.14091519 1.0803127 26105494
-0.054079995 0.13880458 1.081316 26105494
-0.058030769 0.13669372 1.0823305 26105494
-0.061969951 0.13458276 1.0833557 26105494
-0.065257058 0.13300493 1.0838113 26105494
-0.069174305 0.13089359 1.084857 26105494
-0.073080465 0.12878209 1.0859132 26105494
-0.075702026 0.12773728 1.0858119 26105494
-0.078317463 0.1266925 1.0857155 26105494
-0.080927715 0.12564749 1.0856247 26105494
-0.08353214 0.12460244 1.0855393 26105494
-0.086129978 0.12355738 1.0854595 26105494
-0.089352071 0.12197862 1.0859761 26105494
-0.091309533 0.12146682 1.0853159 26105494
-0.093890861 0.1204213 1.0852525 26105494
-0.095840827 0.11990953 1.084599 26105494
-0.097165033 0.1199313 1.0833514 26105494
-0.099111184 0.11941937 1.0827024 26105494
-0.10105428 0.11890743 1.0820556 26105494
-0.10299478 0.11839543 1.0814116 26105494
-0.10554956 0.1173496 1.0813725 26105494
-0.10748252 0.11683745 1.0807354 26105494
-0.10879807 0.11685919 1.0794959 26105494
-0.1107268 0.11634699 1.0788631 26105494
-0.11265242 0.11583475 1.0782325 26105494
-0.11396505 0.11585631 1.0769961 26105494
-0.11527731 0.11587798 1.0757594 26105494
-0.11658983 0.11589954 1.0745227 26105494
-0.11850838 0.11538715 1.0738993 26105494
-0.11981933 0.11540873 1.072664 26105494
-0.12113039 0.11543036 1.0714288 26105494
-0.1230434 0.11491785 1.0708106 26105494
-0.12495314 0.11440546 1.070195 26105494
-0.12626119 0.11442701 1.0689628 26105494
-0.12756957 0.1144485 1.0677302 26105494
-0.12947373 0.11393595 1.0671203 26105494
-0.13018541 0.11449165 1.0652649 26105494
-0.13149352 0.11451314 1.0640326 26105494
-0.13339339 0.11400051 1.0634265 26105494
-0.13410978 0.11455632 1.0615673 26105494
-0.13541807 0.11457778 1.0603349 26105494
-0.13672595 0.11459935 1.0591023 26105494
-0.13862006 0.11408655 1.058502 26105494
-0.13992684 0.11410809 1.0572708 26105494
-0.14181648 0.11359531 1.0566745 26105494
-0.14254008 0.11415113 1.0548084 26105494
-0.14384679 0.1141727 1.0535774 26105494
-0.14515342 0.11419419 1.0523462 26105494
-0.14588268 0.1147503 1.0504746 26105494
-0.14719094 0.11477179 1.0492423 26105494
-0.14849888 0.11479337 1.0480096 26105494
-0.14923422 0.11534945 1.0461326 26105494
-0.15054362 0.11537097 1.044899 26105494
-0.15185331 0.11539254 1.0436649 26105494
-0.15259419 0.11594864 1.0417826 26105494
-0.15390517 0.11597029 1.0405471 26105494
-0.15465043 0.11652664 1.0386608 26105494
-0.15539853 0.11708295 1.0367718 26105494
-0.15671222 0.11710463 1.0355337 26105494
-0.15746506 0.11766095 1.0336406 26105494
-0.15878026 0.11768258 1.0324013 26105494
-0.16009526 0.11770422 1.0311618 26105494
-0.16085367 0.11826069 1.0292635 26105494
-0.1610591 0.11935208 1.0267012 26105494
-0.16127031 0.12044356 1.0241339 26105494
-0.16204022 0.12100015 1.0222244 26105494
-0.16226165 0.12209172 1.0196474 26105494
-0.16303872 0.1226485 1.017731 26105494
-0.16327007 0.12374025 1.0151443 26105494
-0.16405417 0.12429715 1.0132213 26105494
-0.16429608 0.12538904 1.0106254 26105494
-0.16454332 0.12648115 1.0080235 26105494
-0.16479652 0.12757328 1.0054166 26105494
-0.16505547 0.12866554 1.0028043 26105494
-0.16532014 0.12975779 1.0001862 26105494
-0.16612904 0.13031507 0.99824029 26105494
-0.16640364 0.13140759 0.99561268 26105494
-0.16614883 0.13303521 0.99230021 26105494
-0.16590266 0.13466305 0.98897976 26105494
-0.16513287 0.13682631 0.98496848 26105494
-0.16437434 0.13898969 0.98094612 26105494
-0.16256769 0.14222375 0.97554284 26105494
-0.16130699 0.14492291 0.9708094 26105494
-0.15900727 0.14869282 0.96468681 26105494
-0.15725295 0.15192777 0.95923454 26105494
-0.152373 0.15837505 0.94962233 26105494
-0.032140508 0.15437534 1.0722089 26105494
-0.039395079 0.1495828 1.0760224 26105494
-0.04597567 0.1453248 1.0792868 26105494
-0.050595179 0.14267191 1.0808504 26105494
-0.05455552 0.14055386 1.0818515 26105494
-0.057861134 0.13897094 1.0822864 26105494
-0.061799988 0.13685256 1.083308 26105494
-0.064446434 0.13580459 1.0831807 26105494
-0.068364814 0.13368592 1.0842214 26105494
-0.07227169 0.13156715 1.0852728 26105494
-0.075531095 0.12998345 1.0857511 26105494
-0.078147382 0.12893495 1.0856526 26105494
-0.081390843 0.12735102 1.0861461 26105494
-0.083994105 0.12630212 1.0860598 26105494
-0.085961148 0.12578881 1.0853891 26105494
-0.089183196 0.12420449 1.0859029 26105494
-0.091141596 0.123691 1.0852408 26105494
-0.093097284 0.12317742 1.0845814 26105494
-0.095674515 0.12212826 1.0845196 26105494
-0.097622827 0.12161455 1.0838666 26105494
-0.098946854 0.12163637 1.0826194 26105494
-0.10089079 0.12112264 1.0819705 26105494
-0.10345076 0.12007324 1.0819249 26105494
-0.10538752 0.11955927 1.0812833 26105494
-0.10732153 0.11904538 1.0806444 26105494
-0.10925271 0.11853135 1.080008 26105494
-0.11118084 0.11801738 1.0793743 26105494
-0.11310625 0.11750323 1.0787432 26105494
-0.11441852 0.11752487 1.0775065 26105494
-0.11633961 0.11701078 1.0768797 26105494
-0.11765061 0.11703233 1.0756445 26105494
-0.11956714 0.11651812 1.0750217 26105494
-0.12087663 0.11653972 1.0737877 26105494
-0.12218641 0.1165613 1.0725541 26105494
-0.12349598 0.11658276 1.0713203 26105494
-0.12480544 0.11660438 1.0700862 26105494
-0.12611513 0.11662596 1.0688524 26105494
-0.12742476 0.11664755 1.0676188 26105494
-0.12932979 0.11613315 1.0670068 26105494
-0.13063751 0.11615466 1.065774 26105494
-0.13194577 0.1161763 1.0645413 26105494
-0.13384511 0.11566164 1.063935 26105494
-0.13456206 0.11621932 1.0620766 26105494
-0.13645823 0.11570478 1.0614727 26105494
-0.13717811 0.11626246 1.0596116 26105494
-0.13907175 0.11574788 1.0590105 26105494
-0.14037858 0.1157693 1.0577791 26105494
-0.14226775 0.11525459 1.0571826 26105494
-0.14299165 0.1158124 1.0553169 26105494
-0.14429842 0.11583389 1.0540857 26105494
-0.14502673 0.11639173 1.0522163 26105494
-0.14633487 0.11641333 1.0509839 26105494
-0.14706765 0.11697123 1.0491102 26105494
-0.14837728 0.11699275 1.0478764 26105494
-0.15025936 0.1164779 1.0472863 26105494
-0.15156747 0.11649942 1.0460536 26105494
-0.15230589 0.11705745 1.0441744 26105494
-0.15361549 0.11707909 1.0429406 26105494
-0.15435831 0.11763711 1.0410573 26105494
-0.15510412 0.11819512 1.0391717 26105494
-0.15641634 0.11821673 1.037935 26105494
-0.15716659 0.11877496 1.0360451 26105494
-0.1584806 0.11879656 1.034807 26105494
-0.15923487 0.11935479 1.0329132 26105494
-0.16055025 0.11937652 1.0316737 26105494
-0.16075228 0.12047143 1.0291166 26105494
-0.16151546 0.12102973 1.0272148 26105494
-0.16172771 0.12212489 1.0246484 26105494
-0.16249789 0.12268335 1.0227392 26105494
-0.16272043 0.12377865 1.0201635 26105494
-0.16349788 0.12433726 1.0182481 26105494
-0.16373031 0.12543267 1.0156622 26105494
-0.16396846 0.12652829 1.0130713 26105494
-0.16421269 0.12762377 1.0104752 26105494
-0.16446249 0.12871963 1.0078733 26105494
-0.16471802 0.12981543 1.0052662 26105494
-0.16497932 0.13091132 1.0026538 26105494
-0.16524656 0.13200733 1.0000355 26105494
-0.16605709 0.13256651 0.9980883 26105494
-0.16579811 0.13419959 0.99478334 26105494
-0.16477235 0.13800326 0.98746723 26105494
-0.16454048 0.1396369 0.98413604 26105494
-0.16325639 0.14234486 0.97943002 26105494
-0.16145734 0.14558986 0.97402591 26105494
-0.16020356 0.14829823 0.96929151 26105494
-0.15843777 0.15154395 0.96385616 26105494
-0.15616499 0.15532708 0.95771581 26105494
-0.15024813 0.16287088 0.94672602 26105494
-0.030029431 0.15832022 1.0704796 26105494
-0.038582072 0.15243709 1.0754247 26105494
-0.045161739 0.14816451 1.0786827 26105494
-0.050427452 0.14496547 1.0808141 26105494
-0.055031344 0.1423032 1.082387 26105494
-0.058335111 0.14071473 1.0828199 26105494
-0.062272117 0.13858908 1.0838392 26105494
-0.065557495 0.13700026 1.0842905 26105494
-0.068834051 0.13541138 1.0847495 26105494
-0.072101995 0.13382241 1.0852168 26105494
-0.075361356 0.1322332 1.0856919 26105494
-0.077978179 0.13118103 1.0855911 26105494
-0.080588698 0.13012883 1.0854952 26105494
-0.083193749 0.12907642 1.0854049 26105494
-0.085163385 0.12856123 1.0847313 26105494
-0.088386431 0.12697157 1.0852408 26105494
-0.090347454 0.12645614 1.0845752 26105494
-0.092305735 0.12594068 1.0839124 26105494
-0.09488453 0.1248881 1.0838466 26105494
-0.096835598 0.12437255 1.0831904 26105494
-0.098783225 0.12385706 1.0825374 26105494
-0.10072838 0.12334139 1.081887 26105494
-0.10328886 0.12228832 1.0818388 26105494
-0.10522638 0.12177259 1.0811954 26105494
-0.10716151 0.12125687 1.0805542 26105494
-0.10909367 0.12074114 1.079916 26105494
-0.11102277 0.1202252 1.0792801 26105494
-0.11294895 0.11970938 1.0786476 26105494
-0.11487232 0.11919341 1.0780172 26105494
-0.11679284 0.11867739 1.07739 26105494
-0.11810373 0.11869896 1.0761545 26105494
-0.12001999 0.11818291 1.0755315 26105494
-0.12132941 0.11820457 1.0742974 26105494
-0.1232412 0.11768838 1.0736783 26105494
-0.12454943 0.11770994 1.0724459 26105494
-0.12585752 0.11773149 1.0712132 26105494
-0.12656777 0.11829085 1.0693619 26105494
-0.1284738 0.11777461 1.0687482 26105494
-0.12918667 0.11833393 1.0668941 26105494
-0.13108985 0.11781768 1.0662832 26105494
-0.13239808 0.11783922 1.0650506 26105494
-0.13429682 0.11732288 1.0644438 26105494
-0.13560338 0.11734439 1.0632124 26105494
-0.13691001 0.11736596 1.0619812 26105494
-0.13821687 0.11738745 1.06075 26105494
-0.14010839 0.11687104 1.0601497 26105494
-0.14141385 0.11689243 1.0589201 26105494
-0.14271896 0.11691404 1.0576904 26105494
-0.14344351 0.11747355 1.0558252 26105494
-0.1447504 0.11749504 1.0545943 26105494
-0.14605661 0.11751657 1.0533631 26105494
-0.14678709 0.11807636 1.0514927 26105494
-0.14809532 0.11809785 1.0502603 26105494
-0.14940338 0.11811935 1.0490277 26105494
-0.15071149 0.11814094 1.0477951 26105494
-0.15144922 0.11870078 1.045918 26105494
-0.15275846 0.11872233 1.0446839 26105494
-0.1540681 0.11874393 1.0434501 26105494
-0.15481161 0.11930376 1.0415676 26105494
-0.15555774 0.1198637 1.0396821 26105494
-0.15687017 0.11988527 1.0384457 26105494
-0.15762077 0.12044533 1.036556 26105494
-0.15837409 0.12100538 1.0346644 26105494
-0.1591308 0.12156544 1.0327697 26105494
-0.15988968 0.12212563 1.0308719 26105494
-0.16009592 0.1232243 1.0283134 26105494
-0.16086243 0.12378452 1.0264091 26105494
-0.16107847 0.1248833 1.0238411 26105494
-0.16185223 0.12544373 1.02193 26105494
-0.16207825 0.1265426 1.0193527 26105494
-0.16340829 0.12656453 1.0180998 26105494
-0.16364305 0.12766361 1.0155139 26105494
-0.16388385 0.12876293 1.012923 26105494
-0.1641302 0.12986228 1.0103264 26105494
-0.16438214 0.13096175 1.0077243 26105494
-0.16464041 0.13206115 1.0051169 26105494
-0.16490434 0.13316077 1.0025039 26105494
-0.16517387 0.13426042 0.99988562 26105494
-0.16598646 0.1348215 0.99793786 26105494
-0.16519444 0.13699898 0.99395567 26105494
-0.16548274 0.13809896 0.9913196 26105494
-0.1647111 0.14027673 0.9873181 26105494
-0.16395064 0.14245477 0.98330587 26105494
-0.16267224 0.14517176 0.97860032 26105494
-0.16140743 0.14788917 0.97388059 26105494
-0.15963034 0.1511457 0.96846241 26105494
-0.15787052 0.15440243 0.96302766 26105494
-0.15455504 0.1592764 0.95551223 26105494
-0.14969693 0.16576794 0.9459036 26105494
-0.036475375 0.15637642 1.0736887 26105494
-0.043703452 0.15155047 1.0775082 26105494
-0.049615279 0.14780167 1.0802057 26105494
-0.054863319 0.14459133 1.0823476 26105494
-0.058809623 0.14245856 1.0833538 26105494
-0.062744185 0.14032552 1.0843709 26105494
-0.066027984 0.13873127 1.0848203 26105494
-0.069303021 0.13713685 1.0852776 26105494
-0.071933076 0.13608137 1.0851617 26105494
-0.075192347 0.13448671 1.085634 26105494
-0.0771759 0.13396984 1.0849462 26105494
-0.080420732 0.13237497 1.0854321 26105494
-0.083026409 0.13131902 1.0853393 26105494
-0.084996715 0.13080189 1.0846639 26105494
-0.088219985 0.12920669 1.08517 26105494
-0.090181932 0.1286895 1.0845027 26105494
-0.092140928 0.12817237 1.083838 26105494
-0.094720483 0.12711594 1.08377 26105494
-0.096672237 0.12659866 1.083112 26105494
-0.098620847 0.12608135 1.0824568 26105494
-0.10056712 0.12556386 1.0818043 26105494
-0.1031277 0.12450726 1.081754 26105494
-0.10506651 0.12398968 1.0811081 26105494
-0.10700238 0.12347213 1.0804651 26105494
-0.10893537 0.12295444 1.0798249 26105494
-0.11086573 0.12243677 1.0791876 26105494
-0.1127926 0.12191916 1.0785527 26105494
-0.11471723 0.12140141 1.0779209 26105494
-0.11603092 0.12142304 1.0766828 26105494
-0.11795102 0.12090514 1.076055 26105494
-0.11986791 0.12038729 1.0754297 26105494
-0.12117888 0.12040899 1.0741942 26105494
-0.12309162 0.11989105 1.0735734 26105494
-0.12500171 0.11937294 1.0729547 26105494
-0.1263098 0.11939455 1.0717223 26105494
-0.1270204 0.1199557 1.0698717 26105494
-0.12892585 0.11943758 1.069257 26105494
-0.13023387 0.11945916 1.0680246 26105494
-0.13154225 0.11948077 1.0667922 26105494
-0.13285004 0.11950225 1.0655594 26105494
-0.13415848 0.11952373 1.064327 26105494
-0.13605522 0.11900566 1.0637207 26105494
-0.1373619 0.11902709 1.0624897 26105494
-0.13866864 0.11904865 1.0612586 26105494
-0.13997512 0.11907015 1.0600271 26105494
-0.14128189 0.11909167 1.0587964 26105494
-0.14258854 0.11911324 1.0575647 26105494
-0.14389507 0.11913473 1.0563338 26105494
-0.1452017 0.11915632 1.0551023 26105494
-0.14593135 0.11971775 1.0532341 26105494
-0.14666365 0.12027933 1.051363 26105494
-0.14797311 0.12030091 1.0501292 26105494
-0.1487097 0.12086252 1.0482538 26105494
-0.15002067 0.12088413 1.0470185 26105494
-0.15133177 0.12090559 1.0457838 26105494
-0.15264259 0.12092731 1.0445483 26105494
-0.15395384 0.12094883 1.043313 26105494
-0.15469877 0.1215106 1.0414295 26105494
-0.15601148 0.12153221 1.0401931 26105494
-0.15676086 0.1220941 1.0383055 26105494
-0.15751342 0.12265594 1.0364156 26105494
-0.15826885 0.1232178 1.0345225 26105494
-0.15902744 0.12377975 1.0326271 26105494
-0.15923159 0.12488203 1.0300725 26105494
-0.1594414 0.1259844 1.0275123 26105494
-0.1607651 0.12600616 1.0262647 26105494
-0.16098402 0.12710872 1.0236964 26105494
-0.16120832 0.12821123 1.0211229 26105494
-0.1619886 0.1287736 1.0192068 26105494
-0.16331951 0.12879559 1.0179524 26105494
-0.16355674 0.12989849 1.0153666 26105494
-0.1643457 0.13046077 1.0134425 26105494
-0.16404904 0.13210428 1.0101786 26105494
-0.16484617 0.13266686 1.0082459 26105494
-0.16456412 0.13431063 1.0049686 26105494
-0.16536991 0.13487339 1.0030279 26105494
-0.16564052 0.13597676 1.000411 26105494
-0.16591676 0.13708022 0.99778825 26105494
-0.16512822 0.13926506 0.99380702 26105494
-0.165419 0.14036885 0.99117047 26105494
-0.1641181 0.14309463 0.98649055 26105494
-0.16336291 0.14527997 0.98247808 26105494
-0.16208912 0.14800629 0.9777723 26105494
-0.1603025 0.15127352 0.97236973 26105494
-0.15853231 0.15454113 0.9669506 26105494
-0.15572928 0.1588906 0.96014267 26105494
-0.15294938 0.16324049 0.95331293 26105494
-0.034372643 0.16033047 1.0719571 26105494
-0.042247966 0.1549474 1.0763376 26105494
-0.048160329 0.1511859 1.0790267 26105494
-0.0534098 0.14796454 1.0811613 26105494
-0.058000073 0.14528379 1.0827367 26105494
-0.062576041 0.1426028 1.0843256 26105494
-0.066498742 0.14046219 1.08535 26105494
-0.069772348 0.13886225 1.0858057 26105494
-0.07240127 0.13780314 1.0856886 26105494
-0.07565929 0.13620278 1.0861595 26105494
-0.077641994 0.13568428 1.0854707 26105494
-0.080253929 0.13462463 1.0853701 26105494
-0.082859859 0.1335651 1.0852752 26105494
-0.084831387 0.13304621 1.0845976 26105494
-0.087427214 0.13198656 1.0845118 26105494
-0.090017006 0.13092658 1.0844312 26105494
-0.091977 0.13040766 1.0837648 26105494
-0.094557181 0.1293475 1.0836942 26105494
-0.09650968 0.12882847 1.0830343 26105494
-0.098459512 0.12830931 1.0823772 26105494
-0.10040651 0.12779 1.081723 26105494
-0.10235091 0.12727073 1.0810711 26105494
-0.10429177 0.12675157 1.0804224 26105494
-0.10684413 0.12569103 1.0803773 26105494
-0.10877821 0.12517154 1.0797353 26105494
-0.11070925 0.1246521 1.0790958 26105494
-0.11263752 0.12413252 1.0784593 26105494
-0.11456269 0.12361305 1.0778251 26105494
-0.11587794 0.12363461 1.0765862 26105494
-0.11779891 0.12311506 1.0759563 26105494
-0.12032117 0.122054 1.0759399 26105494
-0.12163202 0.12207562 1.0747044 26105494
-0.12294312 0.12209722 1.0734692 26105494
-0.1248538 0.12157739 1.0728488 26105494
-0.12616344 0.12159897 1.071615 26105494
-0.12687616 0.12216202 1.0697634 26105494
-0.12818702 0.12218363 1.0685282 26105494
-0.1294982 0.12220521 1.0672929 26105494
-0.13140164 0.12168533 1.0666795 26105494
-0.13271122 0.12170688 1.0654459 26105494
-0.13461034 0.12118693 1.0648358 26105494
-0.1359186 0.12120847 1.0636034 26105494
-0.13722681 0.12123004 1.062371 26105494
-0.13853495 0.12125156 1.0611384 26105494
-0.13984288 0.12127309 1.0599058 26105494
-0.14115106 0.1212946 1.0586734 26105494
-0.14245932 0.12131617 1.0574408 26105494
-0.14376728 0.12133769 1.0562084 26105494
-0.14507519 0.1213593 1.0549757 26105494
-0.14580669 0.12192265 1.0531068 26105494
-0.14711611 0.1219442 1.0518725 26105494
-0.14785193 0.12250755 1.0499995 26105494
-0.14916293 0.12252916 1.048764 26105494
-0.15047388 0.12255076 1.0475285 26105494
-0.15178482 0.1225724 1.0462937 26105494
-0.15309589 0.12259398 1.0450583 26105494
-0.15440689 0.12261558 1.0438232 26105494
-0.1551526 0.12317912 1.0419402 26105494
-0.15646519 0.12320075 1.0407038 26105494
-0.15721528 0.12376437 1.0388169 26105494
-0.15740727 0.12487016 1.0362756 26105494
-0.15816472 0.12543392 1.0343819 26105494
-0.15892498 0.12599769 1.0324855 26105494
-0.15913148 0.12710372 1.0299306 26105494
-0.15934391 0.1282098 1.0273705 26105494
-0.16011567 0.1287739 1.0254631 26105494
-0.16033803 0.12988004 1.0228934 26105494
-0.16056626 0.1309863 1.0203178 26105494
-0.16189919 0.1310083 1.0190623 26105494
-0.16268389 0.13157257 1.0171428 26105494
-0.16347139 0.13213676 1.0152204 26105494
-0.16426213 0.13270107 1.0132957 26105494
-0.1645122 0.13380772 1.0107 26105494
-0.16530977 0.1343722 1.0087681 26105494
-0.16502927 0.13602141 1.0054922 26105494
-0.16583569 0.13658604 1.0035522 26105494
-0.16610722 0.13769305 1.0009363 26105494
-0.16584836 0.13934267 0.99764007 26105494
-0.16559787 0.14099234 0.99433559 26105494
-0.16482313 0.1431846 0.99034554 26105494
-0.16299538 0.14646226 0.98498672 26105494
-0.16224663 0.14865518 0.98097223 26105494
-0.1609797 0.15139067 0.97626549 26105494
-0.15867223 0.1552116 0.97017902 26105494
-0.1569113 0.1584903 0.96475762 26105494
-0.15411793 0.16285455 0.95794898 26105494
-0.15082456 0.1677618 0.95043141 26105494
-0.033567652 0.16321421 1.0713685 26105494
-0.042086586 0.15727043 1.0763116 26105494
-0.04864125 0.15295339 1.0795679 26105494
-0.053887442 0.14972132 1.0816989 26105494
-0.057833984 0.14757386 1.0826964 26105494
-0.062408909 0.14488351 1.0842814 26105494
-0.066330954 0.14273572 1.0853021 26105494
-0.070241258 0.14058772 1.0863338 26105494
-0.072869554 0.13952476 1.0862155 26105494
-0.076125726 0.13791922 1.0866845 26105494
-0.07874088 0.13685608 1.0865788 26105494
-0.081350192 0.13579276 1.0864782 26105494
-0.083953738 0.13472942 1.0863833 26105494
-0.08592318 0.13420871 1.0857065 26105494
-0.088516563 0.13314527 1.0856209 26105494
-0.090478882 0.13262451 1.0849509 26105494
-0.092438325 0.13210368 1.0842838 26105494
-0.095017254 0.13103998 1.0842121 26105494
-0.096969485 0.13051897 1.0835519 26105494
-0.098918945 0.12999797 1.0828941 26105494
-0.1008652 0.12947696 1.0822389 26105494
-0.102192 0.12949887 1.0809889 26105494
-0.1041341 0.12897769 1.080338 26105494
-0.10607344 0.12845653 1.07969 26105494
-0.10800973 0.12793535 1.0790446 26105494
-0.1105541 0.12687102 1.0790052 26105494
-0.11248328 0.12634966 1.0783668 26105494
-0.11440931 0.1258283 1.0777309 26105494
-0.11572622 0.12585002 1.0764902 26105494
-0.11764811 0.1253286 1.0758586 26105494
-0.11956702 0.12480705 1.0752292 26105494
-0.12148307 0.12428553 1.0746028 26105494
-0.12279575 0.12430712 1.0733664 26105494
-0.12470724 0.12378559 1.0727441 26105494
-0.12601839 0.12380708 1.0715089 26105494
-0.12613623 0.12491535 1.0690393 26105494
-0.12745006 0.12493695 1.0678012 26105494
-0.12876396 0.12495864 1.0665634 26105494
-0.13067015 0.12443692 1.0659466 26105494
-0.1319827 0.12445842 1.0647101 26105494
-0.13447337 0.12339342 1.0647211 26105494
-0.13578309 0.12341485 1.0634871 26105494
-0.13767891 0.12289301 1.0628798 26105494
-0.13840209 0.12345807 1.0610194 26105494
-0.14029516 0.12293614 1.0604148 26105494
-0.14102115 0.12350122 1.0585515 26105494
-0.14233069 0.12352281 1.0573177 26105494
-0.14306112 0.12408794 1.0554504 26105494
-0.14437203 0.12410954 1.0542154 26105494
-0.14568321 0.12413103 1.0529799 26105494
-0.14641933 0.12469626 1.0511072 26105494
-0.14773171 0.12471799 1.0498707 26105494
-0.1490442 0.12473956 1.0486341 26105494
-0.15035664 0.12476125 1.0473976 26105494
-0.15166913 0.12478281 1.0461609 26105494
-0.15298168 0.12480439 1.0449243 26105494
-0.15372781 0.12536994 1.0430419 26105494
-0.15504156 0.12539151 1.0418038 26105494
-0.15635525 0.12541321 1.0405657 26105494
-0.15654592 0.12652251 1.0380287 26105494
-0.15730225 0.12708804 1.0361369 26105494
-0.1575027 0.12819764 1.0335898 26105494
-0.1582662 0.12876332 1.0316913 26105494
-0.15847658 0.12987301 1.029135 26105494
-0.15924762 0.13043877 1.0272295 26105494
-0.16002099 0.13100472 1.0253212 26105494
-0.16024624 0.13211459 1.0227513 26105494
-0.16102709 0.13268054 1.0208366 26105494
-0.16181068 0.13324672 1.0189188 26105494
-0.16259755 0.13381273 1.0169983 26105494
-0.16338749 0.13437882 1.0150754 26105494
-0.16417967 0.13494498 1.01315 26105494
-0.16497524 0.13551119 1.0112212 26105494
-0.16523178 0.13662174 1.0086212 26105494
-0.16549443 0.13773218 1.0060158 26105494
-0.1663013 0.13829857 1.0040765 26105494
-0.16657396 0.1394093 1.0014615 26105494
-0.16578077 0.14160863 0.99749273 26105494
-0.16553317 0.14326391 0.99418849 26105494
-0.16422893 0.14600796 0.98952252 26105494
-0.1629387 0.14875227 0.98484296 26105494
-0.16166298 0.15149683 0.98014957 26105494
-0.15987317 0.15478602 0.9747619 26105494
-0.15810038 0.15807536 0.96935755 26105494
-0.15581964 0.16190958 0.9632532 26105494
-0.15303473 0.16628867 0.9564448 26105494
-0.15079589 0.17012346 0.95030123 26105494
-0.03341122 0.16556099 1.0713515 26105494
-0.040635809 0.16068569 1.0751462 26105494
-0.04719089 0.15635419 1.0783939 26105494
-0.053081021 0.15256655 1.0810907 26105494
-0.057028159 0.1504119 1.0820832 26105494
-0.061603531 0.14771259 1.0836625 26105494
-0.066164091 0.14501294 1.0852551 26105494
-0.069437578 0.14340213 1.0857048 26105494
-0.072067752 0.14233565 1.0855832 26105494
-0.075325608 0.14072442 1.0860476 26105494
-0.077942461 0.13965768 1.0859377 26105494
-0.080553576 0.13859078 1.0858333 26105494
-0.083788335 0.13697916 1.0863202 26105494
-0.086386368 0.13591215 1.0862279 26105494
-0.088352606 0.13538963 1.0855534 26105494
-0.09094049 0.1343224 1.0854707 26105494
-0.092899531 0.13379973 1.0848031 26105494
-0.094855666 0.13327703 1.0841382 26105494
-0.097429037 0.1322096 1.0840693 26105494
-0.099377766 0.13168678 1.0834107 26105494
-0.1007061 0.13170868 1.0821595 26105494
-0.10265061 0.13118577 1.0815053 26105494
-0.1045924 0.13066277 1.0808539 26105494
-0.10591811 0.13068461 1.0796051 26105494
-0.10785502 0.13016155 1.0789576 26105494
-0.1103998 0.12909365 1.0789158 26105494
-0.11232996 0.12857044 1.0782754 26105494
-0.11425686 0.12804732 1.0776377 26105494
-0.11496924 0.12861404 1.0757885 26105494
-0.11689354 0.12809074 1.0751536 26105494
-0.1188149 0.1275675 1.0745211 26105494
-0.12013154 0.12758917 1.0732803 26105494
-0.1220486 0.12706581 1.0726523 26105494
-0.12396295 0.12654245 1.0720265 26105494
-0.12527682 0.12656403 1.0707886 26105494
-0.12659071 0.12658566 1.0695508 26105494
-0.12790422 0.12660736 1.0683126 26105494
-0.12921833 0.12662902 1.0670748 26105494
-0.13112374 0.12610534 1.0664575 26105494
-0.13243629 0.12612706 1.0652208 26105494
-0.13433729 0.12560353 1.0646071 26105494
-0.13564835 0.12562495 1.0633721 26105494
-0.13695942 0.12564662 1.0621371 26105494
-0.13827018 0.12566823 1.0609014 26105494
-0.13958152 0.12568983 1.0596664 26105494
-0.14089249 0.12571135 1.0584311 26105494
-0.14162295 0.1262784 1.0565643 26105494
-0.14293559 0.12630004 1.0553279 26105494
-0.14424835 0.12632164 1.0540912 26105494
-0.14556061 0.12634325 1.0528548 26105494
-0.14687304 0.12636483 1.0516181 26105494
-0.14818554 0.12638655 1.0503812 26105494
-0.14949785 0.12640813 1.0491447 26105494
-0.15024041 0.12697533 1.047267 26105494
-0.15155451 0.12699693 1.0460293 26105494
-0.15230079 0.12756425 1.0441473 26105494
-0.15361644 0.12758589 1.0429082 26105494
-0.15436755 0.12815315 1.0410225 26105494
-0.156247 0.12762928 1.0404294 26105494
-0.157001 0.12819657 1.0385411 26105494
-0.157198 0.12930968 1.0359993 26105494
-0.15740098 0.13042298 1.0334523 26105494
-0.15816627 0.13099048 1.0315526 26105494
-0.15837921 0.13210392 1.028996 26105494
-0.15915217 0.13267154 1.0270898 26105494
-0.15992765 0.1332393 1.0251808 26105494
-0.16070651 0.13380697 1.0232694 26105494
-0.16148771 0.13437474 1.0213549 26105494
-0.16227226 0.13494271 1.019438 26105494
-0.16360618 0.13496467 1.0181808 26105494
-0.16384952 0.13607857 1.0155957 26105494
-0.16464268 0.1366466 1.0136704 26105494
-0.16543843 0.13721457 1.0117428 26105494
-0.16569601 0.13832867 1.0091438 26105494
-0.16595958 0.13944289 1.0065396 26105494
-0.16569059 0.14110336 1.0032587 26105494
-0.16596709 0.14221776 1.0006423 26105494
-0.16517846 0.14442459 0.99667305 26105494
-0.16440184 0.14663148 0.99269301 26105494
-0.16310407 0.14938474 0.98802549 26105494
-0.16182087 0.15213829 0.98334461 26105494
-0.16055201 0.15489206 0.97865003 26105494
-0.15876953 0.15819234 0.97326142 26105494
-0.1570044 0.16149288 0.96785671 26105494
