# .PCD v0.7 - Point Cloud Data file format
VERSION 0.7
FIELDS x y z
SIZE 4 4 4
TYPE F F F
COUNT 1 1 1
WIDTH 1385
HEIGHT 1
VIEWPOINT 0 0 0 1 0 0 0
POINTS 1385
DATA ascii
-0.078476384 0.059140384 0.98833042
-0.076400951 0.059122562 0.98883265
-0.054790199 0.057252079 0.97065407
-0.05091989 0.057014331 0.96874863
-0.04706116 0.056776166 0.96683258
-0.043469071 0.057007022 0.97133571
-0.046317101 0.057570711 0.978136
-0.067392275 0.060802884 1.0154183
-0.065917686 0.060858347 1.0167203
-0.095961556 0.056995697 0.92615908
-0.091751903 0.057154007 0.92987663
-0.090348616 0.057206787 0.93111557
-0.090257406 0.057405867 0.93385714
-0.081973717 0.06104254 0.98641306
-0.080517054 0.061097383 0.98769945
-0.079682067 0.061226569 0.98976713
-0.076362342 0.06105791 0.98870689
-0.050882742 0.058886379 0.96862692
-0.047024399 0.058640301 0.96671158
-0.044649273 0.059022948 0.97280067
-0.047494039 0.059600607 0.97960311
-0.066750854 0.062690772 1.0144923
-0.09592478 0.058863796 0.92603773
-0.091714919 0.059022114 0.92975527
-0.090311602 0.059074849 0.93099445
-0.089564204 0.059202768 0.93298441
-0.083159015 0.062436946 0.97855419
-0.081101909 0.063113056 0.98835319
-0.080265701 0.063244216 0.99042231
-0.076324105 0.062993273 0.988581
-0.046374723 0.060427614 0.9658013
-0.047457054 0.061484531 0.97948068
-0.094560757 0.060578227 0.92442757
-0.091677979 0.060890153 0.9296338
-0.090931907 0.061019987 0.93162268
-0.08952722 0.061072752 0.93286318
-0.081862167 0.064210191 0.97687978
-0.081063598 0.065054268 0.98822731
-0.079605341 0.065109134 0.98951501
-0.076906398 0.065007105 0.98923773
-0.046337858 0.062289782 0.96568018
-0.048026353 0.063447401 0.98015243
-0.0931236 0.062495016 0.92554289
-0.092958853 0.062916145 0.93100876
-0.091552585 0.062969029 0.93225056
-0.090146542 0.063021906 0.93349236
-0.090703666 0.063312218 0.93699056
-0.083082736 0.06629581 0.97830349
-0.083516583 0.066590674 0.98191041
-0.081025168 0.066995569 0.98810095
-0.080810606 0.067211114 0.99095076
-0.079349205 0.067266025 0.9922412
-0.048139572 0.06439402 0.96792585
-0.048596159 0.065414205 0.98082405
-0.092830464 0.065003112 0.93362755
-0.09142141 0.065056019 0.93487221
-0.091975495 0.065352343 0.93837255
-0.082415238 0.068143144 0.97740394
-0.083478287 0.068526052 0.98178476
-0.081610024 0.069019094 0.98875469
-0.082015768 0.069321007 0.99238616
-0.049328551 0.066427387 0.96938211
-0.047951877 0.067219168 0.97990733
-0.093711644 0.066306092 0.92604595
-0.094108224 0.067044996 0.93500429
-0.092696086 0.067098044 0.93625134
-0.093901768 0.067483507 0.94050592
-0.091830686 0.067453705 0.94100493
-0.086152256 0.070574798 0.98192376
-0.083441213 0.07121519 0.99096662
-0.047307804 0.069020204 0.97899073
-0.094336465 0.068256959 0.92667001
-0.095385909 0.069094777 0.93638057
-0.094626606 0.069233038 0.93838054
-0.095827609 0.069626592 0.94263846
-0.097030178 0.073748656 0.99210268
-0.093034551 0.073460162 0.9903124
-0.086518824 0.073595516 0.99473673
-0.047270536 0.070904084 0.97886854
-0.094961271 0.070211791 0.9272936
-0.096663252 0.071152575 0.937756
-0.096556842 0.071379818 0.94050902
-0.089595795 0.075995699 0.99850518
-0.04844673 0.072965637 0.98033327
-0.099912465 0.073484898 0.9413777
-0.09979862 0.073716447 0.94413704
-0.15369512 0.082938328 1.0281453
-0.15340699 0.083176382 1.0310576
-0.15182845 0.083235763 1.0324519
-0.15089084 0.083384655 1.0346091
-0.14931048 0.083444066 1.0360043
-0.1477304 0.083503462 1.0373998
-0.14551388 0.083473228 1.0380278
-0.12375672 0.084064119 1.0545816
-0.12156533 0.084032856 1.0551877
-0.049016088 0.074944295 0.98100418
-0.15550815 0.084735051 1.0237126
-0.15652315 0.085159212 1.0281334
-0.1562352 0.085401237 1.0310457
-0.15594108 0.08564347 1.0339634
-0.15435649 0.085703112 1.0353627
-0.15341265 0.08585418 1.0375252
-0.15182675 0.085913844 1.0389259
-0.15024082 0.085973464 1.0403266
-0.14738168 0.085849784 1.0401928
-0.12467237 0.086010106 1.0522716
-0.12494938 0.086346492 1.0560138
-0.12337105 0.086405806 1.0574081
-0.083977804 0.086037524 1.0709279
-0.083594367 0.08628317 1.0739243
-0.082621068 0.086435392 1.076113
-0.080478549 0.086400315 1.0766754
-0.078921065 0.086458869 1.0780513
-0.076783255 0.08642365 1.0786099
-0.074069619 0.086294524 1.0783474
-0.15573986 0.086583264 1.0206773
-0.1574118 0.087108262 1.0258462
-0.15712832 0.087353997 1.0287545
-0.1574841 0.087693438 1.0324271
-0.15589957 0.087752938 1.0338266
-0.15559964 0.087999389 1.0367494
-0.15465288 0.08815264 1.0389142
-0.15306364 0.088212401 1.0403173
-0.15147494 0.088272072 1.0417209
-0.14861296 0.088144548 1.0415902
-0.14512216 0.087923147 1.0406857
-0.12524934 0.088200077 1.052918
-0.12552492 0.088542409 1.0566614
-0.12394477 0.08860188 1.0580566
-0.11929403 0.088188887 1.0555186
-0.054010153 0.079238817 0.98425668
-0.085491613 0.08804898 1.0694201
-0.086286157 0.088489369 1.0740347
-0.085896939 0.088739224 1.0770361
-0.084917635 0.088893585 1.0792301
-0.082769409 0.088856839 1.0797977
-0.080624282 0.088819839 1.0803633
-0.079062104 0.088878646 1.081743
-0.076342791 0.088745721 1.081486
-0.074206397 0.08870849 1.0820436
-0.071497485 0.088575177 1.0817776
-0.069368526 0.088537663 1.0823286
-0.064952716 0.088115901 1.0795829
-0.063406602 0.088174 1.0809481
-0.16009758 0.086475208 0.99406725
-0.15855317 0.086533278 0.99543101
-0.15569873 0.088672929 1.0205417
-0.15672199 0.089112706 1.0249534
-0.15708642 0.089457676 1.0286176
-0.15679707 0.089707643 1.0315311
-0.155858 0.089862473 1.0336893
-0.15555774 0.09011291 1.0366116
-0.15461104 0.090268061 1.0387766
-0.15302204 0.090327807 1.0401797
-0.15207092 0.090483166 1.0423486
-0.14984392 0.090447269 1.0429866
-0.14635025 0.090220034 1.0420852
-0.1258264 0.09039402 1.0535643
-0.12610047 0.09074235 1.0573087
-0.12513448 0.090898268 1.0594907
-0.11986665 0.090379044 1.0561693
-0.052756235 0.080947243 0.98254925
-0.050724193 0.080903992 0.98301512
-0.087613359 0.09111356 1.079335
-0.084476814 0.091231517 1.0821047
-0.082326964 0.091192819 1.0826743
-0.080760211 0.091251738 1.0840578
-0.078036621 0.09111502 1.0838053
-0.07589595 0.091075905 1.0843668
-0.070475653 0.090801537 1.0838382
-0.066629484 0.090467997 1.0819192
-0.064507797 0.090428174 1.0824637
-0.061250493 0.090192012 1.0813537
-0.059706166 0.09025009 1.0827177
-0.055895582 0.089915164 1.0807672
-0.054357097 0.08997298 1.0821257
-0.051691487 0.089834146 1.0818222
-0.16535963 0.088453323 0.99058002
-0.16648366 0.088897265 0.99490184
-0.16626389 0.089148551 0.99775308
-0.16470908 0.089206979 0.99912626
-0.16249122 0.089168824 0.99975628
-0.15762977 0.088744044 0.99740595
-0.15668033 0.091210373 1.024817
-0.15704475 0.09156128 1.0284808
-0.15675552 0.091815211 1.0313945
-0.155816 0.091972061 1.0335524
-0.15487371 0.092128925 1.0357132
-0.15392818 0.09228605 1.0378764
-0.1529801 0.092443168 1.0400426
-0.15202881 0.092600524 1.0422113
-0.14916556 0.092465132 1.0420823
-0.14694323 0.092427179 1.042716
-0.12516634 0.092395321 1.0526452
-0.12544189 0.092749573 1.0563881
-0.12386151 0.092808984 1.0577836
-0.11921121 0.09237624 1.0552466
-0.052718654 0.082844928 0.98242611
-0.048866555 0.082503699 0.9805128
-0.048657492 0.082754612 0.9833551
-0.077995375 0.093196854 1.0836701
-0.068305805 0.092832036 1.0842545
-0.061369345 0.092606768 1.0850654
-0.058120981 0.092364244 1.0839477
-0.056011543 0.092321999 1.084482
-0.053905204 0.09227965 1.0850134
-0.050677463 0.092036456 1.0838776
-0.046898261 0.091692418 1.0818999
-0.16505085 0.089904003 0.98404032
-0.16552372 0.090256698 0.98760825
-0.16665672 0.090708166 0.99192184
-0.16644274 0.090963215 0.99476773
-0.16755511 0.091415398 0.99909931
-0.16666181 0.091572508 1.0012169
-0.16377614 0.091433987 1.0011079
-0.16023515 0.091196679 1.0002491
-0.15599097 0.093208872 1.0239248
-0.15700345 0.093664803 1.0283444
-0.15671365 0.093922675 1.0312572
-0.15641816 0.094180815 1.0341754
-0.15483199 0.094240457 1.0355759
-0.15324588 0.094300151 1.0369766
-0.15229888 0.094459206 1.0391412
-0.15071152 0.094518915 1.0405428
-0.14848749 0.094479002 1.0411785
-0.14690159 0.094538681 1.0425789
-0.14278199 0.094199523 1.0409026
-0.12265106 0.094091929 1.0493796
-0.12231503 0.094351605 1.0523329
-0.1213582 0.094511062 1.054507
-0.050248951 0.08434014 0.97913653
-0.047009453 0.084091425 0.97801167
-0.045594379 0.084144607 0.9792611
-0.084779814 0.094157398 1.068208
-0.086749956 0.094824426 1.0744395
-0.087530717 0.095289052 1.0790639
-0.082826063 0.095465906 1.0832183
-0.059212998 0.094624802 1.0854707
-0.057100728 0.094580628 1.0860074
-0.054991469 0.094536461 1.0865419
-0.051198825 0.094185054 1.0845766
-0.040450588 0.093230635 1.0794547
-0.036148414 0.092774838 1.0766113
-0.032970026 0.092523836 1.0754325
-0.16556744 0.091178223 0.97544545
-0.16741262 0.091736265 0.98045808
-0.16654877 0.091894314 0.98254877
-0.16769819 0.092352986 0.98684722
-0.16749464 0.092611618 0.98968381
-0.16795395 0.092970811 0.99326283
-0.1684045 0.093330316 0.99685019
-0.16884594 0.093690149 1.0004451
-0.16794978 0.093849309 1.0025651
-0.16572417 0.093807526 1.0032017
-0.16284053 0.093664989 1.0030916
-0.15602712 0.095929004 1.0303619
-0.14337359 0.096404746 1.0415349
-0.13673745 0.095650375 1.0367682
-0.04899554 0.086024709 0.97743088
-0.045152575 0.085667305 0.9755109
-0.042532131 0.085514814 0.97516841
-0.084738851 0.096225426 1.0680737
-0.086708844 0.096904173 1.0743041
-0.087489381 0.097376734 1.0789282
-0.082784802 0.097553693 1.0830829
-0.059172586 0.096684761 1.0853372
-0.057060078 0.096638709 1.0858738
-0.054950818 0.096592478 1.0864084
-0.051720217 0.096337549 1.0852759
-0.042082742 0.095570587 1.081831
-0.03833212 0.095209733 1.0798297
-0.034593448 0.09484832 1.0778179
-0.16451047 0.092487991 0.96824187
-0.16637902 0.093055077 0.97323269
-0.16688 0.093418606 0.97677487
-0.16737197 0.093782462 0.98032504
-0.16718166 0.094044574 0.98314911
-0.1676573 0.094409063 0.98671347
-0.16745345 0.094671629 0.98954993
-0.16724409 0.094934404 0.99239117
-0.16769607 0.095299862 0.99597663
-0.16880484 0.095767997 1.0003102
-0.16790859 0.095929131 1.00243
-0.16634636 0.095987923 1.0038095
-0.16346098 0.095841482 1.003701
-0.047742382 0.087701455 0.97572559
-0.043902546 0.087335937 0.97380358
-0.057019457 0.098696716 1.0857401
-0.054346576 0.098542385 1.085444
-0.041485474 0.097496361 1.0808632
-0.038848296 0.097340606 1.0805352
-0.035662606 0.097078033 1.0793638
-0.027663663 0.096231692 1.0744739
-0.021759406 0.095433973 1.0690625
-0.16410033 0.093879111 0.96179706
-0.16599099 0.09445525 0.96676749
-0.16650833 0.094824068 0.97029489
-0.16701685 0.095193312 0.97383004
-0.16751589 0.095562786 0.97737294
-0.16800587 0.095932804 0.98092395
-0.16781442 0.096198812 0.98374945
-0.16761656 0.096465081 0.98658007
-0.1674128 0.096731752 0.98941594
-0.167872 0.097102702 0.99299437
-0.1676551 0.097369775 0.99584216
-0.16809784 0.09774144 0.99943501
-0.048313126 0.08968994 0.97639447
-0.038808182 0.099367037 1.0804038
-0.03562285 0.099098474 1.0792327
-0.031893179 0.098720916 1.077214
-0.16352282 0.095519602 0.95815748
-0.1647429 0.095999412 0.96239156
-0.16595112 0.096479587 0.966636
-0.16714738 0.096960336 0.97089082
-0.16765396 0.09733551 0.97442704
-0.16747551 0.097605072 0.97724015
-0.1679657 0.097980849 0.98079103
-0.16777389 0.098250881 0.98361605
-0.16690405 0.098415039 0.98571175
-0.16670178 0.09868554 0.98854619
-0.16716246 0.099062458 0.99212271
-0.036137208 0.1012295 1.0799396
-0.031853691 0.10073347 1.0770831
-0.013385043 0.098799594 1.0668347
-0.1596341 0.096338987 0.94814891
-0.16293611 0.097148545 0.95452672
-0.16485022 0.097743571 0.95947474
-0.16606741 0.098231427 0.96371096
-0.16659169 0.098611861 0.96723098
-0.16710718 0.098992594 0.97075874
-0.16693591 0.099265829 0.97356528
-0.16675891 0.099539325 0.97637731
-0.01334624 0.10077249 1.0667064
-0.010232076 0.10048948 1.0654733
-0.16096793 0.098546863 0.94946212
-0.16289659 0.099151202 0.95439655
-0.1648104 0.099756114 0.95934409
-0.16534518 0.10014217 0.96285456
-0.16587101 0.1005284 0.96637267
-0.046377763 0.095004126 0.97365505
-0.043148056 0.094719425 0.97252434
-0.0091056675 0.10222665 1.0636511
-0.0060037524 0.10193712 1.0624075
-0.16036128 0.10014886 0.9458515
-0.16161521 0.10065114 0.95005387
-0.1628571 0.10115383 0.95426637
-0.16477077 0.1017686 0.95921344
-0.16532584 0.10339589 0.9746514
-0.16514559 0.1036774 0.97746545
-0.045732781 0.096767604 0.97274226
-0.042504728 0.096476875 0.97161072
-0.034354523 0.10694725 1.0770316
-0.0085229427 0.10407279 1.0626762
-0.0048802644 0.10366038 1.0605836
-0.00016762316 0.10301346 1.0567808
-0.15767758 0.10139915 0.94009465
-0.15963401 0.10202215 0.94500297
-0.16088922 0.10253233 0.94920319
-0.16213249 0.10304292 0.95341426
-0.16545986 0.10514701 0.97171062
-0.16528545 0.10543219 0.97451919
-0.044480249 0.098410599 0.97103924
-0.00012950599 0.1049547 1.0566549
-0.15763853 0.10337407 0.93996626
-0.15890677 0.10389162 0.94415432
-0.16084968 0.1045251 0.94907349
-0.04444319 0.10028259 0.97091788
-0.065256342 0.11221748 1.0719709
-0.062569126 0.11203588 1.0716896
-0.0062701553 0.1075115 1.0590341
0.00099100173 0.10665412 1.0548296
-0.15690993 0.10523165 0.93911988
-0.15749167 0.10563964 0.94258684
-0.043798611 0.10203428 0.97000557
-0.04239364 0.10208704 0.97124618
-0.0046003908 0.10909621 1.0563672
-0.0020530671 0.10890538 1.0559628
0.0015699416 0.10846851 1.0538542
0.0067987889 0.10766218 1.0491836
-0.14937167 0.10559819 0.92836684
-0.15480272 0.10684662 0.93683797
-0.043153778 0.10378192 0.96909434
-0.041750565 0.10383462 0.9703334
-0.0040181726 0.11091856 1.0553942
-0.00038813055 0.11047398 1.0532928
0.0026895553 0.11015404 1.0520303
-0.14311565 0.10645419 0.92179185
-0.15062778 0.10808576 0.93240303
-0.043116897 0.10564996 0.96897274
-0.041713491 0.10570271 0.97021204
-0.0023485571 0.11248348 1.0527284
0.00073488057 0.11215771 1.0514715
0.0043500811 0.11170474 1.0493574
-0.14576404 0.10917785 0.92725247
-0.043079987 0.10751802 0.96885127
-0.041676775 0.10757083 0.97009045
-0.00013567507 0.1139077 1.049217
0.0029416233 0.11357579 1.0479553
0.0060098916 0.1132435 1.0466857
-0.14296858 0.110618 0.92425627
-0.042435646 0.10925771 0.96794039
-0.040427685 0.10918207 0.96838695
8.6888671e-05 0.11539245 1.0452757
0.0037076324 0.11492384 1.0431681
0.004606232 0.11510881 1.0452876
0.0065887123 0.11503214 1.045712
-0.14354096 0.11298796 0.92756909
0.002504155 0.11633522 1.0379694
0.0050303191 0.1161238 1.0375478
0.0064632148 0.11617772 1.0388131
0.0057282001 0.11676278 1.043468
0.0066262633 0.11694967 1.0455875
-0.14487807 0.1151858 0.92888039
-0.14135985 0.11485267 0.92800957
-0.13990442 0.11490742 0.92929453
0.0018679649 0.11760084 1.0319464
0.0038460642 0.1175201 1.032367
0.0063675195 0.11730472 1.0319419
0.006158188 0.11776219 1.0357347
0.0065010935 0.11808536 1.0386894
0.0052238554 0.11881305 1.0441909
-0.14483975 0.11712909 0.92875403
-0.13994907 0.11652736 0.92644423
-0.13712727 0.1163192 0.92628449
-0.13226213 0.11571655 0.92395216
0.0018076152 0.11871526 1.0251074
0.0043320805 0.11849593 1.0246849
0.0057517141 0.11854934 1.0259385
0.0066233724 0.1187392 1.0280342
0.006951645 0.11906583 1.0309753
0.0067404658 0.1195292 1.0347664
0.006538853 0.11999295 1.0385654
0.0052619129 0.12073056 1.0440664
-0.14686428 0.11947215 0.93078262
-0.14128314 0.11872735 0.9277578
-0.13640432 0.11811537 0.92543799
-0.13154106 0.11750268 0.92310506
-0.12737344 0.11702297 0.92148274
-0.1232187 0.11654287 0.91984969
-0.12043248 0.11632933 0.91965896
0.003997758 0.11925808 1.0149553
0.0054069906 0.11931107 1.0161998
0.006263867 0.11950246 1.0182819
0.0071237832 0.11969388 1.0203667
0.0074371248 0.12002387 1.0232944
0.0072088093 0.12049256 1.0270693
0.0064424127 0.12110014 1.0316954
0.0056884438 0.12170819 1.0363314
0.0049461275 0.12231664 1.0409782
-0.14682566 0.1214214 0.93065614
-0.14124505 0.12066463 0.92763191
-0.13636638 0.12004278 0.9253127
-0.13081993 0.11928482 0.9222582
-0.12665443 0.11879716 0.92063516
-0.12318082 0.11844457 0.91972619
-0.11971657 0.11809153 0.91880924
-0.11626081 0.11773822 0.91788465
-0.11416568 0.11765596 0.91840941
0.0048449785 0.11971482 1.0036201
0.0062408894 0.11976727 1.004853
0.0076366812 0.11981986 1.0060854
0.0073666424 0.12029294 1.0098231
0.0076593012 0.12062607 1.0127323
0.007958129 0.12095947 1.0156469
0.0082625598 0.12129305 1.0185666
0.0074742883 0.12190773 1.0231721
0.0066980869 0.12252284 1.0277882
0.0053872913 0.12327895 1.0332577
0.0040914565 0.12403566 1.0387404
0.0022669882 0.12493347 1.0450816
-0.14120631 0.12260208 0.92750603
-0.13632838 0.12197018 0.92518765
-0.13078208 0.12120039 0.92213386
-0.12593494 0.12056737 0.9197877
-0.1231433 0.1203462 0.91960269
-0.11900015 0.11984978 0.91796011
-0.1162232 0.11962814 0.91776162
-0.11345239 0.11940619 0.91755813
-0.11068738 0.11918407 0.91734928
-0.10591049 0.11854834 0.91494173
-0.10249048 0.11818781 0.91398579
0.0026922077 0.12051234 0.99361473
0.007975474 0.12038492 0.99562949
0.0082399696 0.12072095 0.99851364
0.0085103363 0.12105726 1.0014029
0.008787021 0.12139376 1.0042975
0.0085140616 0.12187266 1.0080321
0.0082501322 0.12235186 1.0117748
0.0079949945 0.12283138 1.0155253
0.0077487975 0.12331133 1.0192835
0.0069624037 0.12393401 1.0238898
0.0061879009 0.12455714 1.028507
0.0048786253 0.12532318 1.033977
0.0035846382 0.12608981 1.0394604
0.001218453 0.12714222 1.0466475
-0.14116822 0.12453941 0.92738003
-0.13560574 0.12375832 0.9243415
-0.13074408 0.12311596 0.92200929
-0.12657879 0.12261251 0.92038721
-0.12242566 0.12210848 0.91875452
-0.11828424 0.12160409 0.9171111
-0.11483178 0.12123881 0.9161846
-0.11206399 0.12101286 0.91597873
-0.10930185 0.12078656 0.91576773
-0.10587314 0.12042052 0.91481978
-0.1031249 0.12019377 0.91459697
-0.10038213 0.11996675 0.91436857
-0.096977443 0.11959971 0.91340011
-0.094248012 0.11937232 0.91315979
-0.092189819 0.11928464 0.91365224
0.0042690188 0.12076626 0.98160404
0.0072537214 0.12120857 0.9868899
0.0080646724 0.12140406 0.98893124
0.0088783652 0.12159965 0.99097472
0.0096952468 0.12179542 0.99302131
0.0093957335 0.1222792 0.99673182
0.0091051906 0.12276348 1.0004506
0.0093801767 0.12310382 1.0033436
0.008550927 0.1237328 1.0079114
0.0082871467 0.12421802 1.0116537
0.0080321282 0.1247035 1.0154035
0.0072350651 0.1253337 1.0200002
0.006450519 0.12596437 1.0246074
0.0056774765 0.12659541 1.0292251
0.0043699592 0.12737134 1.0346959
0.0030776411 0.12814793 1.04018
0.0012564808 0.12906966 1.0465224
-0.14250211 0.12675908 0.92869264
-0.13625197 0.12582511 0.92493695
-0.1313893 0.12517288 0.92260665
-0.12654106 0.12452004 0.92026323
-0.12306814 0.12414963 0.91935557
-0.1189252 0.12363739 0.91771406
-0.11547165 0.12326623 0.91678923
-0.1127023 0.12303636 0.91658503
-0.10926478 0.12266461 0.91564542
-0.10516362 0.12215076 0.91396719
-0.10241689 0.12191997 0.91374344
-0.099675596 0.12168912 0.91351384
-0.096940577 0.12145785 0.91327924
-0.094211444 0.12122645 0.91303951
-0.092153311 0.12113687 0.91353196
-0.090762094 0.12118918 0.91476065
-0.088046312 0.12095731 0.91450876
-0.085336521 0.12072507 0.91425198
-0.082632571 0.12049276 0.91398984
-0.080592588 0.12040249 0.91446656
0.00089348853 0.12029325 0.96124929
0.0022463351 0.12034421 0.96244377
0.0030200332 0.12054024 0.96445197
0.0055719763 0.12147123 0.97332996
0.0063620955 0.12166802 0.97535235
0.0065852553 0.12201045 0.9781993
0.0073827654 0.12220747 0.98022848
0.0081831664 0.12240454 0.98226041
0.0089867264 0.12260181 0.98429459
0.0092292577 0.12294496 0.98715836
0.010039821 0.12314234 0.98919934
0.0097316056 0.12363187 0.99290174
0.0099918693 0.12397569 0.99578148
0.0096999258 0.12446574 0.99949831
0.0088603646 0.12510219 1.0040565
0.0085876733 0.12559304 1.0077906
0.0083239526 0.12608412 1.0115323
0.0075168759 0.12672174 1.0161192
0.0078230351 0.12706733 1.0190394
0.0064876527 0.12785214 1.0244846
0.0057149976 0.12849113 1.0291018
0.0044078082 0.12927711 1.0345719
0.0031154901 0.13006353 1.0400555
-0.14383532 0.1289869 0.93000442
-0.13758282 0.128039 0.92625242
-0.13135128 0.12709042 0.92248219
-0.12582202 0.12628442 0.91941625
-0.1223505 0.12590799 0.91850752
-0.11888765 0.12553123 0.91759092
-0.11543439 0.12515417 0.91666645
-0.11198933 0.1247767 0.91573399
-0.1092276 0.1245426 0.91552347
-0.10579918 0.12416451 0.91457671
-0.10237975 0.1237861 0.91362184
-0.099639103 0.12355121 0.91339296
-0.096903861 0.123316 0.9131586
-0.094174683 0.12308077 0.91291898
-0.092116907 0.12298907 0.91341156
-0.090061873 0.12289736 0.91390139
-0.088009655 0.12280554 0.91438884
-0.084639147 0.12242536 0.91339082
-0.081936955 0.12218893 0.91312772
-0.079898462 0.12209661 0.91360325
-0.076550171 0.12171564 0.91258544
-0.074520454 0.12162287 0.9130531
-0.072493747 0.12153012 0.91351813
-0.071121603 0.12158171 0.91472954
-0.069749549 0.12163324 0.9159413
-0.0063298494 0.12080712 0.94677371
-0.0049859732 0.12085772 0.94796032
-0.004233256 0.12105504 0.94994992
-0.0022983998 0.12095884 0.95033342
-0.0009547323 0.12100933 0.95152038
0.00038920343 0.12105986 0.95270687
0.0019102246 0.12145504 0.95669931
0.0020931214 0.12179995 0.95951039
0.0028622895 0.1219978 0.96151441
0.0036345869 0.12219585 0.96352118
0.0044098645 0.12239397 0.96553069
0.0046122819 0.12273953 0.96835893
0.0053951293 0.12293804 0.97037464
0.0056077391 0.12328397 0.97321194
0.0063976496 0.12348265 0.97523445
0.0071911961 0.12368155 0.97725958
0.0079871863 0.12388045 0.97928733
0.0087863058 0.12407947 0.9813177
0.0090225488 0.12442628 0.9841761
0.0092651695 0.12477336 0.98703951
0.0095138103 0.12512076 0.9899084
0.0097679347 0.12546828 0.99278253
0.0094686002 0.12596402 0.99649233
0.0091783255 0.12645996 1.0002103
0.0088970214 0.1269564 1.0039361
0.0080692619 0.12760124 1.0085039
0.0078071505 0.12809831 1.0122471
0.00755395 0.1285958 1.0159974
0.0078602284 0.12894532 1.0189173
0.0070742816 0.12959164 1.0235221
0.0057525188 0.13038698 1.0289786
0.0049917251 0.13103428 1.0336058
0.0026087016 0.13212758 1.0407746
-0.0013832599 0.13366732 1.0504968
-0.1389135 0.13026088 0.9275673
-0.13199632 0.12915328 0.92307907
-0.12646551 0.12833542 0.92001528
-0.12163283 0.12766227 0.91766006
-0.11749358 0.12713414 0.91601688
-0.11471984 0.12689647 0.91581708
-0.11127669 0.126513 0.91488367
-0.1085166 0.12627491 0.91467208
-0.10508966 0.12589088 0.91372424
-0.10234293 0.12565225 0.91350073
-0.099601865 0.1254133 0.91327184
-0.097535044 0.12532008 0.91377264
-0.094137788 0.1249349 0.91279835
-0.092080101 0.1248414 0.91329092
-0.090025097 0.12474764 0.91378123
-0.087311015 0.12450781 0.91352874
-0.084602863 0.1242677 0.91327113
-0.081900477 0.12402738 0.91300815
-0.079204187 0.12378683 0.91273993
-0.076513872 0.12354601 0.91246659
-0.074484348 0.12345139 0.91293448
-0.072457418 0.12335665 0.9133994
-0.070433676 0.12326182 0.91386193
-0.069063157 0.12331332 0.91507214
-0.067692623 0.12336483 0.91628247
-0.06696929 0.123563 0.91824585
-0.065597296 0.12361459 0.91945726
-0.064225212 0.1236662 0.9206689
-0.061567575 0.12342424 0.92036647
-0.058915839 0.12318202 0.92005903
-0.056270078 0.12293953 0.9197461
-0.053630263 0.12269685 0.91942817
-0.051633433 0.12260092 0.91986686
-0.050910041 0.12279914 0.92183036
-0.048282057 0.12255598 0.92150158
-0.046925023 0.122607 0.92270023
-0.044936895 0.12251083 0.92313117
-0.042951688 0.12241451 0.92355937
-0.040341482 0.12217069 0.92321509
-0.038990408 0.12222157 0.92440826
-0.037013948 0.12212495 0.92482883
-0.025957063 0.12322447 0.93989092
-0.024601504 0.1232755 0.94108826
-0.015562803 0.12258957 0.94112235
-0.013013437 0.12234341 0.94072407
-0.011070117 0.12224559 0.94111603
-0.0097278208 0.12229604 0.94230121
-0.008385554 0.12234656 0.94348651
-0.0070432276 0.12239701 0.94467193
-0.0057006329 0.12244753 0.94585711
-0.0049507171 0.12264665 0.94784397
-0.0041976124 0.122846 0.94983357
-0.0028523058 0.12289662 0.95102149
-0.0015070587 0.12294709 0.95220953
-0.00016184151 0.12299769 0.95339745
0.00059865415 0.12319726 0.95539361
0.0019453019 0.12324793 0.95658296
0.002128616 0.12359679 0.95939356
0.0023173243 0.12394575 0.96220976
0.0036702603 0.12399662 0.96340436
0.0044456869 0.12419679 0.96541351
0.0046481639 0.12454627 0.96824116
0.0054309517 0.12474667 0.97025722
0.0056435317 0.12509668 0.97309417
0.0064338595 0.12529728 0.97511655
0.0072274059 0.12549818 0.97714144
0.0080230981 0.12569904 0.97916919
0.0088222474 0.12590003 0.98119944
0.0090591758 0.12625086 0.98405737
0.0093014091 0.12660193 0.98692077
0.0089872926 0.12710303 0.9906171
0.0086822063 0.12760442 0.99432141
0.0089458078 0.12795624 0.99720329
0.0086566955 0.12845835 1.000922
0.0089336783 0.12881064 1.0038154
0.0086610764 0.12931323 1.0075488
0.0089511722 0.12966615 1.0104539
0.0086952597 0.13016942 1.0142016
0.0078975707 0.13082325 1.0187953
0.0071117431 0.13147759 1.0233996
0.0057900101 0.13228276 1.0288556
0.0044832379 0.13308838 1.0343244
0.0026464909 0.13404515 1.0406501
-0.0013448447 0.13560468 1.0503709
-0.14092834 0.13263786 0.92960173
-0.13400693 0.13151452 0.92511851
-0.12847207 0.13068503 0.9220596
-0.12363513 0.13000223 0.91970867
-0.11881308 0.12931877 0.91734499
-0.11468276 0.12878236 0.91569453
-0.11056423 0.12824544 0.91403359
-0.10780554 0.12800327 0.9138208
-0.10438029 0.12761331 0.91287225
-0.1023061 0.12751833 0.91337937
-0.099565178 0.12727547 0.91315085
-0.097498253 0.12718028 0.91365129
-0.094767898 0.12693706 0.91341394
-0.092708275 0.12684155 0.91390795
-0.0899885 0.12659791 0.91366094
-0.087274581 0.12635407 0.91340882
-0.083905637 0.12596193 0.91241032
-0.081864148 0.12586579 0.91288871
-0.079168051 0.12562123 0.91262096
-0.07647787 0.12537655 0.9123475
-0.073793352 0.12513158 0.91206926
-0.072421402 0.12518311 0.91328067
-0.069746047 0.1249379 0.91299421
-0.068376958 0.12498929 0.91420335
-0.066359147 0.12489221 0.91466087
-0.064991638 0.12494371 0.91586822
-0.063623965 0.12499509 0.91707593
-0.061612263 0.12489785 0.91752821
-0.059603319 0.12480044 0.91797775
-0.05759722 0.12470294 0.91842455
-0.054954767 0.12445641 0.91810936
-0.052956223 0.1243586 0.9185496
-0.050960749 0.12426064 0.91898745
-0.049603626 0.12431171 0.92018563
-0.046978638 0.12406454 0.9198547
-0.044992074 0.12396631 0.92028457
-0.043008745 0.12386789 0.92071182
-0.041657478 0.12391867 0.9219051
-0.03905046 0.12367091 0.92155832
-0.037075669 0.12357224 0.92197758
-0.035728961 0.12362278 0.92316693
-0.03438206 0.12367348 0.92435616
-0.032413453 0.12357459 0.92477018
-0.031068072 0.12362509 0.92595822
-0.030341804 0.12382539 0.92792398
-0.028994679 0.12387607 0.92911333
-0.027648047 0.12392666 0.93030256
-0.026915953 0.12412716 0.93227357
-0.02556771 0.12417793 0.93346411
-0.024219513 0.12422854 0.93465465
-0.022261128 0.12412933 0.93505961
-0.020914271 0.12417976 0.93624896
-0.019567609 0.12423048 0.93743807
-0.017615244 0.124131 0.93783766
-0.015665695 0.12403137 0.93823463
-0.014321819 0.12408198 0.93942136
-0.012377128 0.12398203 0.93981463
-0.011034742 0.12403253 0.94099969
-0.0096923858 0.12408302 0.9421851
-0.0083499402 0.12413352 0.9433704
-0.007007882 0.12418396 0.9445557
-0.0062592179 0.12438507 0.94654125
-0.0049152225 0.12443555 0.94772774
-0.0041623265 0.12463681 0.94971746
-0.0028170198 0.12468744 0.95090526
-0.0014715046 0.12473805 0.95209306
-0.00071264803 0.12493948 0.95408767
4.9486756e-05 0.12514108 0.95608515
0.0013973564 0.12519178 0.95727557
0.0021641701 0.12539357 0.95927697
0.0023529381 0.12574655 0.96209282
0.0031270832 0.12594858 0.96410054
0.0044814795 0.12599951 0.96529633
0.0046836883 0.12635303 0.96812373
0.0048919767 0.12670681 0.97095686
0.0056795329 0.12690929 0.97297639
0.0064694732 0.12711197 0.97499865
0.0072629899 0.12731475 0.97702354
0.0074909478 0.12766925 0.97987336
0.008858487 0.12772068 0.98108119
0.0090950578 0.12807536 0.98393911
0.0093374103 0.12843034 0.98680204
0.0084611326 0.12908915 0.99132556
0.0087185353 0.12944481 0.99420196
0.0089820176 0.12980056 0.99708349
0.0092516094 0.13015664 0.99997002
0.0095268935 0.13051277 1.002862
0.0098081976 0.13086936 1.0057592
0.0095418543 0.13137811 1.0094974
0.0092842132 0.13188732 1.013243
0.0084850043 0.13254896 1.0178351
0.0065998286 0.13351583 1.0241165
0.0047318786 0.13448316 1.0304141
0.0034284741 0.13529885 1.0358849
0.00050602853 0.13657257 1.0438993
-0.1422586 0.13487753 0.93091542
-0.13533454 0.13373858 0.92643577
-0.12979709 0.13289726 0.92338008
-0.12563725 0.13235396 0.92175645
-0.12081058 0.13166085 0.91939729
-0.11599924 0.13096717 0.91702503
-0.11120223 0.1302729 0.91463953
-0.10776834 0.12987733 0.91369909
-0.10367082 0.12933171 0.91202039
-0.1009271 0.12908503 0.9117946
-0.098189533 0.12883812 0.91156393
-0.096125618 0.12874082 0.91206211
-0.094064757 0.12864333 0.91255754
-0.092006981 0.12854582 0.91305047
-0.089288577 0.12829816 0.91280264
-0.087237999 0.12820035 0.91328901
-0.084529862 0.12795237 0.91303176
-0.082486987 0.12785429 0.91351146
-0.079789221 0.12760589 0.91324514
-0.077097625 0.12735721 0.91297358
-0.074411869 0.12710834 0.91269678
-0.072385326 0.12700963 0.91316181
-0.069710016 0.12676039 0.91287607
-0.067690685 0.12666145 0.91333491
-0.06567435 0.12656236 0.913791
-0.064308479 0.12661368 0.91499728
-0.06229648 0.12651443 0.91544944
-0.060287699 0.12641498 0.91589922
-0.058281913 0.12631553 0.91634625
-0.056920201 0.12636676 0.9175486
-0.054279223 0.12611622 0.91723233
-0.052282125 0.12601638 0.91767138
-0.050288111 0.12591645 0.91810793
-0.048297226 0.12581632 0.91854185
-0.046309307 0.12571618 0.91897327
-0.044324219 0.12561592 0.91940171
-0.042342171 0.12551558 0.91982788
-0.040992245 0.1255663 0.92101973
-0.039014742 0.12546578 0.92144161
-0.037040129 0.12536508 0.92186123
-0.035068601 0.12526423 0.92227775
-0.03372331 0.12531483 0.92346579
-0.032377854 0.12536547 0.92465383
-0.031032607 0.12541604 0.92584187
-0.03030625 0.12561825 0.92780751
-0.028341874 0.12551722 0.92821759
-0.02761279 0.12571961 0.93018597
-0.026265934 0.12577024 0.93137532
-0.024306282 0.12566903 0.93178159
-0.022961035 0.12571961 0.93296951
-0.021005675 0.12561816 0.93337184
-0.019661769 0.12566862 0.93455845
-0.018317968 0.12571916 0.9357453
-0.016368642 0.12561762 0.93614227
-0.015026376 0.12566811 0.93732768
-0.01368387 0.12571859 0.93851286
-0.012341589 0.12576899 0.93969816
-0.010999128 0.12581944 0.9408837
-0.010255173 0.12602243 0.94286495
-0.0089110285 0.12607291 0.94405168
-0.0075673312 0.12612355 0.94523829
-0.006817475 0.12632665 0.94722503
-0.0054720193 0.1263772 0.94841307
-0.0053081363 0.12673318 0.95120615
-0.0039599985 0.12678388 0.95239681
-0.0026117414 0.12683454 0.95358723
-0.0018496364 0.12703815 0.95558447
-0.0010845512 0.12724182 0.95758408
0.00026671588 0.12729263 0.95877737
0.0010360926 0.12749654 0.96078116
0.0018084794 0.12770048 0.96278757
0.0025839955 0.12790459 0.96479648
0.0033625811 0.12810877 0.96680802
0.0041436702 0.12831298 0.96882242
0.004353717 0.12867075 0.97165614
0.005142644 0.12887534 0.97367698
0.0059341937 0.12907997 0.97570044
0.0067290515 0.12928489 0.9777264
0.0075268596 0.12948975 0.9797551
0.0088943094 0.12954122 0.98096281
0.0085657388 0.13005364 0.98464543
0.0093737394 0.13025889 0.98668319
0.0084975213 0.1309256 0.99120647
0.008755222 0.13128513 0.99408215
0.0084589869 0.1317988 0.99779385
0.0092881769 0.13200492 0.99984998
0.0095634311 0.13236508 1.0027418
0.0098447949 0.13272548 1.0056386
0.0095786601 0.13324028 1.009376
0.0087691396 0.13390946 1.0139585
0.0074210316 0.13473344 1.0193894
0.0055389851 0.13571215 1.0256729
0.0036746114 0.13669157 1.0319722
0.0023742169 0.1375173 1.0374451
0.00054396689 0.13849804 1.0437741
-0.14085172 0.13652042 0.92934948
-0.13597916 0.13581917 0.92703158
-0.13112192 0.13511732 0.92470056
-0.12695919 0.13456625 0.92308015
-0.12213008 0.13386339 0.92072409
-0.1173154 0.13315994 0.91835505
-0.11251597 0.13245589 0.91597277
-0.10840498 0.13190284 0.91430634
-0.10430636 0.13134938 0.91262954
-0.10156128 0.13109887 0.91240531
-0.098822132 0.13084796 0.91217595
-0.096756756 0.13074878 0.91267556
-0.09336184 0.13034579 0.91170138
-0.091305301 0.13024619 0.91219312
-0.088588521 0.12999454 0.91194421
-0.086539462 0.12989464 0.91242939
-0.083833128 0.1296427 0.91217119
-0.081791535 0.12954253 0.91264981
-0.079752922 0.12944233 0.91312581
-0.077717483 0.12934196 0.91359919
-0.075030282 0.12908915 0.91332382
-0.073002234 0.12898847 0.91379088
-0.070325464 0.12873539 0.91350621
-0.068304703 0.12863442 0.9139666
-0.065638527 0.12838095 0.91367275
-0.064272389 0.1284323 0.91487914
-0.062260762 0.12833104 0.91533154
-0.060251608 0.12822974 0.91578132
-0.058245987 0.1281282 0.91622847
-0.056243256 0.12802663 0.91667289
-0.054243192 0.12792489 0.91711479
-0.052246541 0.12782314 0.91755396
-0.050252527 0.12772119 0.91799074
-0.048261628 0.12761921 0.91842467
-0.046273783 0.12751701 0.91885608
-0.044288561 0.12741473 0.91928476
-0.042306706 0.1273123 0.91971105
-0.040327489 0.12720993 0.92013437
-0.038351402 0.12710729 0.92055541
-0.036378413 0.12700459 0.92097372
-0.035033226 0.12705517 0.92216152
-0.033687755 0.12710577 0.92334944
-0.032342464 0.12715632 0.92453748
-0.030997247 0.12720698 0.9257254
-0.029651985 0.12725753 0.92691332
-0.028306529 0.12730816 0.92810136
-0.026961267 0.12735876 0.92928928
-0.02561599 0.12740931 0.9304772
-0.024270833 0.12745988 0.93166512
-0.022314101 0.1273565 0.932069
-0.02097024 0.12740704 0.93325561
-0.01901792 0.12730363 0.93365532
-0.017675549 0.12735403 0.93484086
-0.016333193 0.12740451 0.93602628
-0.014990985 0.12745497 0.93721145
-0.014251187 0.12765971 0.93918878
-0.012907296 0.12771028 0.94037539
-0.011563584 0.12776077 0.94156212
-0.010219678 0.12781125 0.94274873
-0.0094726235 0.12801635 0.94473261
-0.0081272274 0.12806684 0.94592065
-0.007375434 0.12827206 0.94790846
-0.0060287565 0.12832275 0.94909793
-0.0052726716 0.12852815 0.95108932
-0.0045137852 0.12873343 0.95308393
-0.0031637102 0.12878427 0.95427579
-0.0024002641 0.12898982 0.95627421
-0.0022183806 0.12935054 0.95908278
-0.00086428225 0.12940139 0.96027881
-9.1835856e-05 0.12960735 0.96228486
0.00068365037 0.12981343 0.96429366
0.0020408481 0.12986439 0.96549231
0.0033980757 0.12991545 0.96669072
0.0036035627 0.13027689 0.96952051
0.004389599 0.13048345 0.97153836
0.0051784962 0.13068998 0.9735592
0.0053988248 0.13105208 0.97640198
0.0067648143 0.13110343 0.97760838
0.0075627714 0.13131037 0.97963685
0.0083634704 0.13151732 0.98166794
0.0086017698 0.1318801 0.98452657
0.0088460892 0.13224304 0.98739046
0.0085337609 0.13276204 0.99108714
0.0087915808 0.13312551 0.99396271
0.0084956437 0.13364509 0.99767381
0.0087667257 0.134009 1.0005612
0.009600237 0.13421738 1.0026212
0.0093266219 0.13473776 1.0063519
0.0085085779 0.13541454 1.010926
0.0077023655 0.13609183 1.0155103
0.0058068782 0.13708198 1.0217812
0.0039292723 0.13807276 1.0280678
0.0020697564 0.13906419 1.0343699
0.0007738024 0.13989997 1.0398462
-0.00050728023 0.14073637 1.0453355
-0.1401289 0.13830858 0.92850369
-0.13525818 0.13759741 0.92618507
-0.13176502 0.13719201 0.92529815
-0.12760089 0.13663325 0.92367941
-0.1234488 0.13607377 0.92205006
-0.11863177 0.13536057 0.91968423
-0.11450477 0.1348002 0.91803306
-0.1103895 0.13423949 0.91637093
-0.10628669 0.1336782 0.91469878
-0.1028661 0.13327023 0.91374737
-0.10012387 0.13301551 0.91352075
-0.097387955 0.1327607 0.91328901
-0.093324974 0.13219798 0.91158122
-0.09126851 0.13209647 0.91207284
-0.088551834 0.13184088 0.91182417
-0.08584106 0.131585 0.91157013
-0.083136246 0.131329 0.91131085
-0.081755251 0.13138089 0.91253036
-0.079059169 0.13112453 0.91226321
-0.07702516 0.13102216 0.91273528
-0.074994296 0.13091967 0.91320497
-0.072965965 0.13081709 0.91367191
-0.070289448 0.13055989 0.9133876
-0.06826897 0.13045701 0.9138481
-0.065602556 0.13019961 0.91355449
-0.063589409 0.13009641 0.91400844
-0.061579078 0.12999311 0.91445965
-0.060215801 0.13004434 0.9156633
-0.058210298 0.1299409 0.91611058
-0.056207493 0.12983727 0.91655523
-0.05484733 0.12988847 0.91775638
-0.052848861 0.12978476 0.91819698
-0.050853476 0.12968093 0.91863483
-0.048861116 0.12957689 0.91907054
-0.046871677 0.12947282 0.91950351
-0.044885412 0.12936863 0.91993362
-0.042271033 0.1291092 0.91959423
-0.040921584 0.1291599 0.9207862
-0.038943872 0.12905538 0.92120844
-0.036969215 0.12895077 0.92162818
-0.035622671 0.12900147 0.92281729
-0.034275696 0.12905213 0.92400664
-0.03292878 0.12910277 0.92519587
-0.031582117 0.12915334 0.9263851
-0.030235112 0.12920401 0.92757457
-0.028888598 0.1292547 0.92876369
-0.027541757 0.1293053 0.92995304
-0.026195109 0.12935597 0.93114227
-0.024848431 0.1294066 0.9323315
-0.023501471 0.12945718 0.93352097
-0.021544486 0.129352 0.93392462
-0.019590735 0.12924653 0.93432599
-0.018854171 0.12945309 0.93630069
-0.017508879 0.1295037 0.93748873
-0.01555948 0.12939814 0.93788618
-0.014818445 0.12960491 0.93986446
-0.013472989 0.12965542 0.94105238
-0.012727514 0.12986237 0.94303483
-0.01138036 0.12991303 0.94422418
-0.010033801 0.12996364 0.94541353
-0.0092820674 0.13017076 0.94740111
-0.0079334229 0.13022155 0.94859165
-0.0065853447 0.13027218 0.94978231
-0.0064184219 0.13063625 0.95257777
-0.0044779032 0.1305303 0.95296723
-0.0037158281 0.13073781 0.9549641
-0.0029506534 0.1309455 0.95696372
-0.0027673692 0.13131014 0.95977324
-0.00082848966 0.13120416 0.96016163
-5.6162477e-05 0.13141215 0.96216768
0.00071953237 0.13162014 0.96417648
0.0020764023 0.13167122 0.96537477
0.0034338385 0.13172224 0.96657342
0.0042153448 0.13193038 0.96858734
0.0049996823 0.13213888 0.97060388
0.0057869405 0.13234735 0.97262293
0.0060062557 0.13271329 0.97546428
0.0068008751 0.13292202 0.97749025
0.0075988621 0.13313091 0.97951859
0.0083994418 0.13333991 0.98154956
0.0086376816 0.13370657 0.98440784
0.0088823587 0.13407356 0.98727149
0.0085702091 0.13459843 0.99096757
0.0082670599 0.13512364 0.99467188
0.0085321516 0.13549146 0.99755377
0.0082452148 0.13601723 1.0012724
0.0085239857 0.13638556 1.0041661
0.0082533211 0.13691196 1.007899
0.0079919845 0.13743877 1.0116398
0.0060832947 0.13844022 1.0178981
0.0047431737 0.13928419 1.023334
0.0034178346 0.14012876 1.0287833
0.0021073669 0.14097384 1.034246
0.00081185997 0.14181957 1.0397215
-0.14145897 0.14055815 0.92981678
-0.13658579 0.13983712 0.9275015
-0.13240825 0.13927078 0.92589515
-0.12892269 0.13885933 0.92500192
-0.12476777 0.1382921 0.92337602
-0.11994784 0.13756913 0.9210133
-0.11581807 0.13700101 0.91936499
-0.1117 0.13643244 0.91770619
-0.10759431 0.13586342 0.91603702
-0.10417068 0.13544962 0.91508847
-0.10075663 0.13503537 0.9141323
-0.097351283 0.13462088 0.91316813
-0.094621047 0.13436186 0.91293126
-0.091896936 0.13410249 0.91268939
-0.088515356 0.1336872 0.91170412
-0.086466417 0.13358337 0.91218966
-0.083760247 0.13332337 0.91193205
-0.081059769 0.13306326 0.91166896
-0.078365505 0.13280281 0.91140085
-0.076332912 0.13269848 0.91187173
-0.074303389 0.13259387 0.91234022
-0.072276756 0.1324892 0.91280621
-0.069601685 0.13222814 0.91252059
-0.067582756 0.13212317 0.9129799
-0.065566584 0.13201815 0.91343647
-0.062906325 0.13175645 0.91313809
-0.061543271 0.13180771 0.91434163
-0.059535965 0.1317023 0.91479057
-0.05753161 0.13159686 0.91523641
-0.056171566 0.13164794 0.91643769
-0.054811388 0.13169912 0.9176386
-0.052813172 0.1315935 0.91807932
-0.050817773 0.13148767 0.91851777
-0.048825338 0.13138172 0.91895312
-0.046836168 0.13127559 0.91938633
-0.044849828 0.13116944 0.91981667
-0.042866156 0.13106316 0.92024428
-0.040885761 0.13095686 0.92066926
-0.038908198 0.13085034 0.92109162
-0.037559897 0.13090107 0.92228228
-0.036211684 0.13095167 0.92347282
-0.034863412 0.13100243 0.92466348
-0.033515081 0.13105318 0.92585391
-0.032166913 0.13110378 0.92704481
-0.030818835 0.13115448 0.92823523
-0.028853118 0.13104761 0.92864746
-0.027506247 0.13109824 0.92983645
-0.026773989 0.13130653 0.93180698
-0.024812683 0.13119951 0.93221515
-0.023466036 0.13125008 0.93340439
-0.022119403 0.13130075 0.9345935
-0.020772547 0.13135135 0.93578297
-0.018818796 0.131244 0.93618423
-0.0174734 0.13129464 0.93737227
-0.016128317 0.13134509 0.93856007
-0.014782622 0.13139579 0.93974823
-0.013437673 0.1314463 0.94093603
-0.01269187 0.13165525 0.94291836
-0.011344954 0.13170585 0.94410747
-0.01059489 0.13191497 0.94609374
-0.009246543 0.13196564 0.94728452
-0.0078981072 0.13201642 0.94847506
-0.0065499395 0.13206702 0.94966573
-0.0057922155 0.13227642 0.95165855
-0.0044425279 0.13232717 0.9528504
-0.0030928403 0.13237792 0.95404226
-0.0023290962 0.1325874 0.9560402
-0.0021470338 0.13295606 0.95884866
-0.00020973384 0.13284805 0.95923573
0.00056152046 0.13305792 0.96124035
0.0013352484 0.13326782 0.96324736
0.0026910752 0.13331881 0.96444482
0.0040468127 0.13336986 0.96564168
0.0048267394 0.13357994 0.96765429
0.0056097955 0.13379028 0.9696694
0.0063955933 0.13400063 0.97168726
0.0060420781 0.13452998 0.97534639
0.0068370253 0.13474062 0.97737199
0.007634744 0.13495153 0.9794001
0.0078686625 0.13532197 0.98225445
0.008108899 0.13569278 0.9851138
0.0083547086 0.13606369 0.98797852
0.0086062998 0.13643485 0.99084836
0.0077424496 0.13712582 0.99538058
0.0080093294 0.1374976 0.99826366
0.0082817823 0.13786951 1.001152
0.0080041438 0.1384016 1.004878
0.0071804672 0.13909402 1.0094454
0.006368801 0.13978696 1.0140238
0.0050165504 0.14064029 1.0194488
0.0031293482 0.14165455 1.0257244
0.002357468 0.14234883 1.0303383
0.0010502189 0.14320403 1.0358026
-0.13586466 0.14161348 0.92665488
-0.131689 0.14103901 0.92504793
-0.12820493 0.14062154 0.92415386
-0.1240515 0.14004639 0.9225269
-0.1205868 0.1396282 0.92161578
-0.11645578 0.13905224 0.91996926
-0.11301048 0.13863328 0.91904086
-0.10890168 0.1380564 0.91737479
-0.10480468 0.13747922 0.91569823
-0.10138892 0.13705918 0.91474348
-0.098649994 0.1367965 0.91451484
-0.095250681 0.13637576 0.91354579
-0.092525095 0.13611269 0.91330534
-0.089805603 0.13584918 0.91305989
-0.087092027 0.13558558 0.91280895
-0.084384248 0.1353218 0.91255277
-0.081682414 0.13505766 0.91229135
-0.078986511 0.13479334 0.9120248
-0.076952592 0.13468707 0.9124971
-0.074921906 0.13458064 0.91296691
-0.072240785 0.13431573 0.91268724
-0.070217401 0.13420901 0.91315037
-0.067546502 0.1339438 0.91286141
-0.064882025 0.13367832 0.91256744
-0.062870249 0.13357112 0.91301996
-0.060861677 0.13346377 0.91347033
-0.059500277 0.133515 0.91467255
-0.057495877 0.13340759 0.91511875
-0.056135893 0.1334587 0.91632003
-0.054136157 0.133351 0.91676229
-0.052139327 0.13324326 0.91720182
-0.050145477 0.13313544 0.91763884
-0.048789784 0.1331864 0.91883594
-0.046166927 0.1329194 0.91850513
-0.044182003 0.13281113 0.91893405
-0.042200208 0.13270292 0.91936058
-0.040221125 0.13259447 0.91978449
-0.038872898 0.13264519 0.92097515
-0.037524626 0.13269582 0.92216569
-0.035551623 0.13258716 0.92258424
-0.034827933 0.13279724 0.9245469
-0.033479691 0.13284793 0.92573756
-0.032131359 0.1328986 0.9269281
-0.030783206 0.13294932 0.92811841
-0.029435053 0.13300002 0.92930919
-0.028086618 0.13305077 0.93049973
-0.026738465 0.1331014 0.93169039
-0.025390208 0.13315213 0.93288106
-0.024041787 0.13320285 0.93407148
-0.022083879 0.13309368 0.93447715
-0.020737201 0.13314423 0.93566626
-0.018783391 0.13303494 0.93606788
-0.01743789 0.13308561 0.93725568
-0.016092718 0.13313603 0.93844384
-0.014747307 0.13318667 0.93963176
-0.01340197 0.1332373 0.94081968
-0.012056872 0.13328779 0.94200772
-0.010711595 0.13333836 0.94319564
-0.0099628419 0.13354945 0.94518048
-0.0086158663 0.13360006 0.94636971
-0.0072692186 0.13365075 0.94755894
-0.0059223026 0.13370129 0.94874829
-0.0051663071 0.13391262 0.95073956
-0.0044070333 0.13412401 0.95273358
-0.0030575544 0.13417473 0.95392555
-0.0022934824 0.13438627 0.9559235
-0.0015269071 0.13459793 0.95792407
-0.00017412007 0.13464874 0.95911855
0.00059683621 0.13486063 0.96112293
0.0013712496 0.13507256 0.9631303
0.0027269274 0.13512355 0.96432728
0.0035051256 0.13533565 0.96633846
0.00428693 0.13554782 0.96835226
0.0050712675 0.13576022 0.97036856
0.0058585852 0.13597259 0.97238749
0.0060779601 0.13634655 0.97522801
0.0063030571 0.13672057 0.97807437
0.0071024746 0.13693359 0.98010379
0.0067714006 0.13746959 0.98378211
0.0070142895 0.13784441 0.98664385
0.0072632879 0.13821948 0.98951083
0.0075184852 0.13859469 0.99238318
0.0072184354 0.1391319 0.99608904
0.0069272071 0.13966939 0.99980277
0.0066449791 0.14020729 1.0035248
0.0063719898 0.14074543 1.0072541
0.0061076432 0.14128417 1.0109913
0.0052987486 0.14198494 1.0155718
0.0045022219 0.14268637 1.0201623
0.0031665415 0.14355028 1.0256011
0.0018462688 0.14441478 1.0310531
0.00054083765 0.14527982 1.0365183
-0.13787429 0.14402214 0.92869145
-0.13301326 0.14328092 0.92636675
-0.12816723 0.14253902 0.92402929
-0.12333553 0.14179677 0.92167836
-0.11987247 0.14137247 0.92076629
-0.11641829 0.14094806 0.91984588
-0.11297297 0.1405232 0.91891807
-0.10953651 0.14009798 0.9179824
-0.10610929 0.13967237 0.91703862
-0.10269047 0.13924649 0.91608697
-0.099948689 0.13898003 0.91586119
-0.095880151 0.13839373 0.91416019
-0.093153372 0.1381267 0.9139213
-0.090432316 0.13785943 0.91367716
-0.087717354 0.1375919 0.91342789
-0.085008055 0.13732409 0.91317338
-0.082305089 0.13705614 0.9129135
-0.080265045 0.13694796 0.91339141
-0.077572301 0.13667962 0.91312236
-0.075539827 0.13657129 0.91359359
-0.07285741 0.1363025 0.91331559
-0.07083264 0.13619381 0.91378015
-0.068160504 0.13592473 0.91349274
-0.065494761 0.13565531 0.91320008
-0.062834427 0.13538584 0.91290218
-0.061471447 0.13543698 0.91410595
-0.05946438 0.13532764 0.91455489
-0.056817636 0.1350576 0.91424507
-0.055459008 0.13510862 0.91544479
-0.054100245 0.13515982 0.91664451
-0.051465333 0.13488922 0.91632444
-0.049473211 0.13477924 0.91676039
-0.048119038 0.13483021 0.91795629
-0.046131238 0.13472015 0.91838807
-0.044146344 0.13461 0.91881722
-0.042164311 0.1344997 0.91924375
-0.040185526 0.13438934 0.9196679
-0.038837388 0.13443998 0.92085856
-0.03686282 0.13432944 0.92127866
-0.035516039 0.1343801 0.92246777
-0.034792617 0.13459206 0.92443031
-0.033444121 0.13464269 0.92562097
-0.032095924 0.13469353 0.9268114
-0.030747741 0.13474417 0.92800182
-0.028782159 0.13463336 0.92841417
-0.027435347 0.13468394 0.9296034
-0.026702881 0.13489634 0.93157381
-0.024741635 0.13478523 0.9319821
-0.023394808 0.13483593 0.93317145
-0.022048429 0.1348865 0.93436044
-0.020093188 0.13477519 0.93476361
-0.018140718 0.13466388 0.93516392
-0.01740256 0.13487634 0.93713945
-0.015453428 0.13476494 0.93753713
-0.014109522 0.13481539 0.93872386
-0.013366535 0.13502821 0.94070345
-0.012021318 0.13507876 0.94189137
-0.010675952 0.13512927 0.94307929
-0.0093307644 0.13517988 0.94426721
-0.0085805804 0.13539293 0.946253
-0.0072336942 0.13544366 0.94744259
-0.0058869272 0.13549423 0.9486317
-0.0051306039 0.13570747 0.95062298
-0.0037823468 0.13575813 0.95181352
-0.0030216724 0.13597158 0.95380872
-0.0022578984 0.13618514 0.95580643
-0.0014911741 0.1363987 0.95780712
-0.00072167814 0.13661253 0.95980996
5.1125884e-05 0.1368264 0.96181577
0.00082652271 0.13704029 0.96382421
0.0021837205 0.13709128 0.96502262
0.003540948 0.13714233 0.96622115
0.0037467927 0.13751972 0.96904987
0.0045330077 0.13773412 0.97106737
0.0053218454 0.13794854 0.97308737
0.0055426806 0.1383265 0.9759292
0.0057696551 0.13870472 0.9787764
0.0065703839 0.13891956 0.98080701
0.0062407106 0.13946161 0.98448628
0.0064855069 0.13984039 0.98734897
0.006735906 0.14021942 0.99021715
0.0069925338 0.14059868 0.99309057
0.0066940933 0.14114192 0.99679726
0.0069640726 0.14152169 0.99968261
0.0061241239 0.14222932 1.0042348
0.0058524162 0.14277354 1.0079651
0.0055897683 0.14331809 1.0117037
0.0047823936 0.14402696 1.0162845
0.0039876848 0.14473629 1.0208762
0.0026538819 0.14561012 1.0263157
0.00078640878 0.14664882 1.0326068
-0.0027059168 0.14818075 1.041434
-0.13920121 0.14628172 0.93000633
-0.13365628 0.14536956 0.92696327
-0.12812917 0.14445662 0.9239046
-0.12329774 0.14370441 0.92155427
-0.11983486 0.14327434 0.92064255
-0.11638062 0.14284378 0.91972297
-0.11293554 0.14241299 0.91879505
-0.10949948 0.14198187 0.91785973
-0.10540132 0.14138877 0.91618568
-0.10265353 0.14111856 0.91596538
-0.099911913 0.14084804 0.91573983
-0.09650974 0.14041561 0.91477424
-0.093781307 0.14014471 0.91453713
-0.091058895 0.13987342 0.91429466
-0.088342533 0.13960204 0.91404682
-0.086292461 0.13949227 0.91453391
