# .PCD v0.7 - Point Cloud Data file format
VERSION 0.7
FIELDS x y z rgba
SIZE 4 4 4 4
TYPE F F F U
COUNT 1 1 1 1
WIDTH 1111
HEIGHT 1
VIEWPOINT 0 0 0 1 0 0 0
POINTS 1111
DATA ascii
-0.025537327 0.21583143 0.99152368 26623614
-0.024696276 0.21612316 0.99358374 26623614
-0.024430826 0.2166529 0.99645263 26623614
-0.024736866 0.21742135 1.0001342 30121791
-0.024457768 0.21795169 1.0030148 30121791
-0.024747327 0.21872061 1.006711 30121791
-0.024455443 0.21925148 1.0096035 30121791
-0.025299594 0.22025949 1.014127 29020818
-0.026701435 0.22150666 1.019475 29020818
-0.028088585 0.22275421 1.0248363 32453459
-0.030594245 0.22447968 1.0318441 19692796
-0.034774885 0.22692186 1.0413249 22672853
-0.042871818 0.23103657 1.0565679 28891352
-0.057352081 0.23933041 1.0885673 29927592
-0.058578685 0.24058402 1.0940702 29927592
-0.057008818 0.24064302 1.0954564 29927592
-0.05543901 0.24070206 1.0968423 29927592
-0.054422632 0.24100029 1.0990572 29927592
-0.052299544 0.24082017 1.0996149 29927592
-0.050729796 0.24087912 1.1010008 29927592
-0.049159989 0.24093819 1.102387 24162480
-0.047590211 0.2409972 1.1037734 24162480
-0.046020165 0.24105632 1.1051595 18980221
-0.044450685 0.24111527 1.1065454 18980221
-0.042880967 0.24117428 1.1079316 18980221
-0.041311249 0.24123332 1.1093178 18980221
-0.039741501 0.24129233 1.1107042 19044954
-0.037633106 0.24111158 1.1112485 19044954
-0.037139192 0.24165016 1.1143196 19044954
-0.035032317 0.24146938 1.1148624 19044954
-0.033462599 0.24152848 1.1162488 19044954
-0.031892762 0.24158746 1.117635 19044954
-0.029792115 0.24140647 1.1181729 19044954
-0.027164534 0.24098545 1.1178586 22543131
-0.025599316 0.24104428 1.1192408 22543131
-0.025087073 0.24158347 1.1223273 22543131
-0.022468671 0.24116197 1.1220052 22543131
-0.021426991 0.24146119 1.1242423 22543131
-0.020904586 0.2420007 1.1273382 32906846
-0.019334808 0.24205965 1.1287243 32906846
-0.016726598 0.24163783 1.1283927 32906846
-0.015677616 0.24193731 1.1306365 32906846
-0.013593122 0.24175563 1.1311598 32906846
-0.010482147 0.2410928 1.1299551 32906846
-0.0084065646 0.24091086 1.1304708 32906846
-0.0073576123 0.24121034 1.1327143 17361128
-0.0052850991 0.24102831 1.1332273 17361128
-0.25071836 0.23963815 0.9453029 17490594
-0.24839745 0.23946345 0.94603521 17490594
-0.2453541 0.23905411 0.94608873 17490594
-0.24448924 0.23934859 0.94816929 17490594
-0.24217589 0.23917359 0.94889528 17490594
-0.24058674 0.23923334 0.95029825 21506088
-0.2382779 0.2390582 0.95102018 21506088
-0.23812695 0.23958787 0.95378774 21506088
-0.2343858 0.23894259 0.95313984 21506088
-0.23423021 0.23947233 0.95591122 21506088
-0.23264141 0.23953217 0.95731443 28502698
-0.23176463 0.23982704 0.95940596 28502698
-0.23017417 0.23988688 0.96081036 28502698
-0.22929268 0.24018189 0.96290523 28502698
-0.22628497 0.23977119 0.96292716 28502698
-0.22469594 0.23983091 0.96433049 28502698
-0.2224019 0.23965526 0.96503919 28502698
-0.21940733 0.23924395 0.96504921 28502698
-0.21782289 0.23930347 0.96644861 28502698
-0.21553783 0.23912758 0.96714944 29798126
-0.21465354 0.23942277 0.96924716 29798126
-0.21376647 0.23971793 0.97134775 29798126
-0.21287633 0.24001339 0.9734506 29798126
-0.21198343 0.24030891 0.97555655 29798126
-0.20970117 0.24013284 0.97625452 33230767
-0.20880504 0.24042848 0.97836286 33230767
-0.20583613 0.24001622 0.9783507 23449905
-0.20356108 0.23983991 0.97904223 23449905
-0.20266376 0.24013555 0.981152 23449905
-0.20039211 0.23995894 0.98184103 23449905
-0.19812338 0.23978239 0.98252708 23449905
-0.19654007 0.23984188 0.98392504 23449905
-0.194957 0.23990151 0.98532289 27465655
-0.19269453 0.23972461 0.98600429 27465655
-0.19246875 0.24025697 0.98883718 27465655
-0.19088422 0.24031648 0.99023646 27465655
-0.18997492 0.24061269 0.9923566 27465655
-0.18771516 0.24043569 0.99303538 27465655
-0.18613033 0.24049529 0.99443454 27465655
-0.18387525 0.24031815 0.99510914 24615867
-0.18028431 0.2396673 0.99432892 24615867
-0.17737018 0.23925307 0.994268 24615867
-0.17379557 0.2386018 0.99347323 30186524
-0.14724229 0.23095661 0.97345752 24810066
-0.13647543 0.22769445 0.96452612 21311889
-0.12772714 0.22514224 0.95776361 21311889
-0.12032597 0.2230632 0.95244557 20858502
-0.11557512 0.22193214 0.95005566 20858502
-0.11149336 0.22103789 0.94839162 20858502
-0.10742356 0.22014329 0.9467172 20858502
-0.1033655 0.21924812 0.94503206 26040761
-0.099969268 0.21859011 0.94407994 26040761
-0.096582443 0.2179316 0.9431197 24939532
-0.093851075 0.21751058 0.9428975 24939532
-0.090480164 0.21685141 0.94192296 18591567
-0.088406265 0.21666762 0.94243723 18591567
-0.086335078 0.21648347 0.94294924 18591567
-0.083626106 0.21606156 0.94270688 18591567
-0.080923036 0.21563935 0.94246 33295500
-0.078863904 0.21545476 0.94296128 33295500
-0.076807603 0.21527019 0.94345957 33295500
-0.074754402 0.21508548 0.94395584 33295500
-0.072704345 0.21490064 0.94444913 33295500
-0.070656881 0.21471569 0.94493991 33295500
-0.068612754 0.21453071 0.94542795 33295500
-0.066571519 0.21434537 0.94591337 17749526
-0.064533338 0.21416017 0.94639629 17749526
-0.06249781 0.21397474 0.94687635 17749526
-0.060465366 0.21378925 0.94735402 17749526
-0.058435991 0.21360365 0.94782907 17749526
-0.056409717 0.21341792 0.94830149 17749526
-0.055006355 0.21347061 0.94954067 17749526
-0.053603277 0.21352342 0.95077974 17749526
-0.052199826 0.21357632 0.95201892 17749526
-0.051412344 0.21386775 0.95403141 17749526
-0.050007641 0.21392053 0.95527178 21182423
-0.047990158 0.21373451 0.95573622 21182423
-0.046586767 0.21378726 0.95697552 21182423
-0.045183614 0.21384007 0.9582147 21182423
-0.043780282 0.21389279 0.95945364 21182423
-0.042376995 0.21394557 0.96069282 30575178
-0.040973753 0.21399838 0.96193177 30575178
-0.03957063 0.21405113 0.96317118 30575178
-0.038167283 0.21410391 0.96441025 30575178
-0.037364721 0.21439594 0.96643609 30575178
-0.035960093 0.21444872 0.96767634 30575178
-0.03515327 0.21474102 0.969706 30575178
-0.033747047 0.2147938 0.97094804 30575178
-0.032935604 0.2150864 0.97298115 30575178
-0.031527922 0.21513927 0.97422451 30575178
-0.030712217 0.21543196 0.97626179 19109687
-0.02930291 0.21548492 0.97750634 19109687
-0.02848275 0.2157777 0.97954768 19109687
-0.027659193 0.21607053 0.98159164 19109687
-0.027419344 0.21660343 0.98443788 19109687
-0.026588663 0.2168965 0.98648828 19109687
-0.026337698 0.21742994 0.98934382 26623614
-0.026081398 0.2179634 0.99220449 26623614
-0.025818899 0.21849704 0.99507052 26623614
-0.025550559 0.2190311 0.99794167 30121791
-0.025276199 0.21956527 1.0008183 30121791
-0.025571212 0.22033995 1.0045087 30121791
-0.025857851 0.22111493 1.0082068 30121791
-0.026135072 0.22189033 1.0119131 30121791
-0.026974663 0.22290647 1.0164402 29020818
-0.028372124 0.2241635 1.0217915 32971579
-0.029754564 0.22542113 1.0271559 19692796
-0.033388868 0.22764176 1.0358002 19692796
-0.039257362 0.23082614 1.0477402 32323993
-0.045650527 0.23425281 1.0605335 28891352
-0.054387197 0.23942477 1.080477 32777380
-0.055633023 0.24068755 1.0859621 32777380
-0.055748597 0.24146903 1.0898118 29927592
-0.054742381 0.24176878 1.0920172 29927592
-0.053178445 0.24182752 1.0933981 29927592
-0.052167997 0.24212751 1.0956073 29927592
-0.050602719 0.24218628 1.0969896 24162480
-0.049037412 0.24224523 1.0983715 24162480
-0.046923295 0.24206284 1.0989218 24162480
-0.045359507 0.24212158 1.1003027 24162480
-0.043250129 0.24193898 1.1008484 24162480
-0.042232022 0.24223924 1.1030643 24162480
-0.040668175 0.24229801 1.1044452 24162480
-0.039104357 0.24235678 1.1058264 18980221
-0.037540361 0.24241561 1.1072071 18980221
-0.035976753 0.24247441 1.108588 18980221
-0.034949884 0.24277496 1.1108119 19044954
-0.032849059 0.24259204 1.1113498 19044954
-0.03128539 0.24265075 1.112731 19044954
-0.029721454 0.24270961 1.1141117 19044954
-0.027626708 0.2425265 1.1146443 22543131
-0.025534585 0.24234319 1.1151745 22543131
-0.023446247 0.24215978 1.1157022 22543131
-0.022413239 0.24246052 1.1179311 22543131
-0.019802138 0.24203488 1.1176023 22543131
-0.018244401 0.24209341 1.118978 22543131
-0.017730907 0.24263653 1.1220663 22543131
-0.016169772 0.24269536 1.1234441 22543131
-0.014609024 0.24275398 1.1248224 22543131
-0.013047948 0.24281272 1.1262009 22543131
-0.010971025 0.24262884 1.1267178 32906846
-0.0094119459 0.24268752 1.1280949 32906846
-0.007339105 0.24250361 1.1286077 27724587
-0.0062931329 0.24280477 1.1308489 27724587
-0.0042234212 0.24262065 1.1313591 27724587
-0.24557571 0.24010408 0.94045061 17490594
-0.24399243 0.24016359 0.94184881 17490594
-0.24168397 0.23998642 0.94257075 17490594
-0.24082623 0.24028257 0.94464475 17490594
-0.23852049 0.24010539 0.94536418 25004521
-0.23621748 0.23992807 0.94608063 25004521
-0.23391755 0.23975068 0.94679469 25004521
-0.23305701 0.24004701 0.94887143 25004521
-0.23004375 0.23963249 0.94889885 25004521
-0.22989701 0.24016577 0.951662 25004521
-0.22831674 0.24022523 0.95305759 25004521
-0.22816102 0.24075887 0.95582861 28502698
-0.22586749 0.24058127 0.95653743 28502698
-0.22499506 0.24087793 0.95862466 28502698
-0.22199585 0.24046284 0.95863873 23320439
-0.22041582 0.24052235 0.96003419 23320439
-0.21883564 0.24058181 0.96142942 23320439
-0.21655224 0.24040365 0.96212918 23320439
-0.21427165 0.24022561 0.96282607 23320439
-0.21269445 0.24028492 0.96421868 23320439
-0.21181612 0.24058169 0.9663114 29798126
-0.21023737 0.24064112 0.96770543 29798126
-0.20865883 0.24070048 0.96909934 29798126
-0.20777471 0.24099755 0.97119707 29798126
-0.20619442 0.24105704 0.97259241 19951728
-0.20461433 0.24111634 0.97398776 19951728
-0.20234434 0.24093795 0.9746756 19951728
-0.20007689 0.24075931 0.97536069 19951728
-0.19918676 0.24105656 0.97746354 23449905
-0.19760804 0.24111599 0.97885746 23449905
-0.19534551 0.24093717 0.97953886 27465655
-0.19376801 0.24099648 0.98093134 27465655
-0.19219099 0.24105585 0.98232406 27465655
-0.1899343 0.2408767 0.98299998 27465655
-0.18903683 0.24117449 0.98510963 27465655
-0.18813612 0.24147213 0.9872219 27465655
-0.18723257 0.24177009 0.98933655 27465655
-0.18565248 0.24182937 0.99073201 27465655
-0.18407227 0.24188879 0.99212736 24615867
-0.18115054 0.24147105 0.99207336 24615867
-0.17890446 0.24129137 0.99274033 24615867
-0.17599322 0.24087307 0.99267679 24615867
-0.17308791 0.24045467 0.99260825 30186524
-0.1681947 0.23931906 0.9903453 26688347
-0.14039792 0.2311275 0.96879929 24810066
-0.1296642 0.22783655 0.95984071 21311889
-0.12225921 0.22573981 0.9545278 30639911
-0.11684816 0.22435987 0.95140451 30639911
-0.11276363 0.22345781 0.94974357 20858502
-0.1080382 0.22231603 0.94733185 20858502
-0.10463034 0.22165251 0.94639069 20858502
-0.10123147 0.2209886 0.94544119 26040761
-0.098489553 0.22056386 0.94522852 26040761
-0.095106885 0.21989936 0.94426471 26040761
-0.092378497 0.2194742 0.94404012 19692796
-0.089656249 0.21904871 0.94381016 19692796
-0.086939991 0.21862298 0.9435752 18591567
-0.084229469 0.21819711 0.94333488 18591567
-0.081525147 0.21777102 0.94308919 33295500
-0.079464346 0.21758449 0.94359189 33295500
-0.077406749 0.21739802 0.94409186 33295500
-0.075352177 0.21721131 0.94458932 33295500
-0.0733006 0.21702462 0.94508404 33295500
-0.07125181 0.2168377 0.94557625 33295500
-0.069206119 0.21665072 0.94606584 33295500
-0.067163423 0.21646374 0.94655281 33295500
-0.065123662 0.21627653 0.94703704 17749526
-0.062461004 0.21584871 0.94675487 17749526
-0.060428426 0.21566129 0.94723243 17749526
-0.058399081 0.21547359 0.94770759 17749526
-0.056994513 0.21552655 0.94894797 17749526
-0.055589572 0.21557933 0.95018834 17749526
-0.054184705 0.21563217 0.95142895 17749526
-0.053397208 0.21592566 0.95344132 17749526
-0.051990941 0.21597865 0.95468301 21182423
-0.050584793 0.21603143 0.95592493 21182423
-0.048565969 0.21584341 0.9563908 21182423
-0.047160938 0.21589622 0.95763129 21182423
-0.045146778 0.21570808 0.95809299 21182423
-0.043743476 0.21576086 0.95933229 21182423
-0.042946681 0.2160548 0.96135265 30575178
-0.041542143 0.21610755 0.96259302 30575178
-0.040137276 0.21616039 0.96383363 30575178
-0.039334804 0.21645442 0.96585912 30575178
-0.037928656 0.21650732 0.96710092 30575178
-0.03712146 0.21680155 0.96913046 30575178
-0.035714 0.21685451 0.97037333 30575178
-0.034902498 0.2171489 0.97240669 30575178
-0.034088388 0.21744347 0.97444254 30575178
-0.032677576 0.21749645 0.9756884 30575178
-0.031858712 0.21779108 0.97772831 19109687
-0.030446365 0.21784428 0.97897536 19109687
-0.029623419 0.21813914 0.98101932 19109687
-0.028797224 0.21843418 0.9830659 19109687
-0.027967855 0.21872923 0.98511511 19109687
-0.027720347 0.2192663 0.98796743 26623614
-0.026883349 0.21956173 0.99002308 26623614
-0.027206853 0.22034121 0.99368829 26623614
-0.026941553 0.22087902 0.99655658 26623614
-0.026669815 0.22141701 0.99943024 30121791
-0.026392445 0.2219553 1.0023088 30121791
-0.02726011 0.22297835 1.0068102 30121791
-0.026967719 0.22351718 1.0097022 30121791
-0.027242228 0.22429848 1.0134108 17361128
-0.02807875 0.22532263 1.0179396 32971579
-0.030042663 0.22683224 1.0241072 32971579
-0.031988606 0.22834253 1.0302901 19692796
-0.036749914 0.23106626 1.0405719 32323993
-0.043173984 0.23451948 1.0533357 32323993
-0.052523866 0.23997384 1.0740509 32777380
-0.053785726 0.24124587 1.0795212 32777380
-0.053914592 0.24203277 1.0833583 32777380
-0.053476408 0.24257711 1.0863788 32777380
-0.052476302 0.24287856 1.0885789 32777380
-0.050918415 0.24293715 1.0899544 29927592
-0.049913689 0.24323887 1.0921586 20664303
-0.04835476 0.2432974 1.0935354 20664303
-0.046244696 0.24311292 1.0940814 20664303
-0.045235768 0.24341476 1.0962894 24162480
-0.043676332 0.24347341 1.0976663 24162480
-0.041571125 0.24328864 1.0982082 24162480
-0.040013179 0.24334723 1.0995841 24162480
-0.03899838 0.24364936 1.1017973 24227213
-0.036356434 0.2432209 1.1014965 24227213
-0.03479974 0.2432794 1.1028709 24227213
-0.032705083 0.24309418 1.1034038 24227213
-0.031687126 0.2433964 1.1056197 24227213
-0.030130878 0.24345502 1.1069942 24227213
-0.029108241 0.24375716 1.1092136 24227213
-0.027550355 0.24381578 1.1105895 22543131
-0.025992438 0.24387446 1.1119649 22543131
-0.023376033 0.24344504 1.1116421 22543131
-0.021293148 0.24325937 1.1121645 22543131
-0.019739613 0.24331784 1.1135361 22543131
-0.01766111 0.24313205 1.1140544 22543131
-0.016109243 0.24319047 1.1154251 22543131
-0.014557377 0.24324876 1.1167955 22543131
-0.013525888 0.24355149 1.1190228 22543131
-0.011972502 0.24360991 1.1203949 27724587
-0.010419056 0.24366826 1.1217663 27724587
-0.0083497018 0.24348223 1.1222773 27724587
-0.006797716 0.24354059 1.1236475 27724587
-0.0052457899 0.24359894 1.1250176 27724587
-0.0036940724 0.24365717 1.1263885 27724587
-0.0026521832 0.24396035 1.1286249 27724587
-0.0010986775 0.24401876 1.1299968 17943981
-0.24261968 0.24125764 0.93762046 17490594
-0.24104227 0.24131691 0.9390133 17490594
-0.2394651 0.24137622 0.94040602 17490594
-0.23716383 0.24119681 0.94112152 25004521
-0.23486544 0.2410174 0.94183427 25004521
-0.2332911 0.24107665 0.94322449 25004521
-0.23099722 0.24089694 0.94393319 25004521
-0.22942449 0.2409561 0.94532186 25004521
-0.22713499 0.24077636 0.9460271 25004521
-0.22699432 0.24131346 0.94878477 25004521
-0.2247064 0.24113363 0.94948846 25004521
-0.22384571 0.24143183 0.95156497 25004521
-0.22156091 0.2412518 0.95226592 23320439
-0.22140683 0.2417894 0.95503563 23320439
-0.21912311 0.24160933 0.95573527 23320439
-0.21684255 0.24142927 0.95643252 23320439
-0.21526979 0.24148837 0.95782119 23320439
-0.2129939 0.24130803 0.95851439 23320439
-0.2107207 0.24112761 0.95920485 23320439
-0.20845078 0.24094713 0.95989257 23320439
-0.20758115 0.24124569 0.96197718 23320439
-0.20601146 0.24130481 0.96336335 26753080
-0.20513798 0.24160343 0.96545202 19951728
-0.20426081 0.24190229 0.96754259 19951728
-0.20199524 0.2417216 0.96822673 19951728
-0.2011153 0.24202061 0.97032005 19951728
-0.19885285 0.24183983 0.97100168 19951728
-0.19728146 0.24189895 0.97238916 19951728
-0.19571052 0.2419579 0.97377676 24033014
-0.19482456 0.24225718 0.97587532 27465655
-0.19256781 0.2420761 0.97655159 27465655
-0.19099654 0.24213529 0.97793895 27465655
-0.19010632 0.24243459 0.9800418 27465655
-0.18717431 0.24201307 0.97999722 27465655
-0.18628274 0.24231255 0.9821015 27465655
-0.18538798 0.242612 0.98420781 27465655
-0.18449073 0.2429117 0.98631734 27465655
-0.18224256 0.2427302 0.98698562 24615867
-0.18067007 0.24278945 0.98837441 24615867
-0.17775588 0.2423673 0.98831421 24615867
-0.17618613 0.24242619 0.9897005 24615867
-0.17261331 0.24176291 0.98890501 26688347
-0.17038195 0.2415809 0.98955888 26688347
-0.16682406 0.24091712 0.9887504 26688347
-0.16128533 0.23953015 0.98574072 26688347
-0.14431946 0.23458454 0.9730708 24810066
-0.13357793 0.23126614 0.96412212 24810066
-0.12484939 0.22866955 0.95734531 30639911
-0.1187769 0.2270368 0.95349044 30639911
-0.11337934 0.22564453 0.95035619 24291946
-0.10930537 0.22473416 0.94868678 24291946
-0.10589458 0.22406462 0.94774848 24291946
-0.10314272 0.22363639 0.94754499 26040761
-0.099748194 0.22296637 0.94659227 26040761
-0.097009644 0.22253761 0.94637722 26040761
-0.093631864 0.221867 0.94540972 19692796
-0.090906501 0.22143769 0.94518274 19692796
-0.088187054 0.22100809 0.9449504 19692796
-0.085473701 0.22057846 0.94471306 19692796
-0.083405882 0.22039026 0.94522244 19692796
-0.081340805 0.22020191 0.9457292 33295500
-0.078642547 0.21977177 0.9454785 33295500
-0.076584607 0.21958327 0.9459787 33295500
-0.074530065 0.21939462 0.94647616 33295500
-0.072478712 0.21920592 0.94697112 33295500
-0.070429906 0.21901694 0.94746345 33295500
-0.067755312 0.21858585 0.94719177 33295500
-0.065713912 0.21839684 0.94767743 17749526
-0.063675761 0.21820742 0.94816083 17749526
-0.061015949 0.21777579 0.94787592 17749526
-0.058985248 0.21758613 0.94835263 17749526
-0.057578847 0.21763909 0.9495942 17749526
-0.056172743 0.21769199 0.950836 17749526
-0.054766312 0.21774483 0.95207781 17749526
-0.053977251 0.21804044 0.95409161 17749526
-0.051953971 0.21785051 0.95456141 21182423
-0.050547704 0.21790347 0.95580322 21182423
-0.049141422 0.21795639 0.95704502 21182423
-0.04773514 0.21800923 0.95828658 21182423
-0.04571934 0.21781909 0.95875007 21182423
-0.044314697 0.2178719 0.9599908 30575178
-0.043516502 0.21816784 0.96201211 30575178
-0.042110458 0.21822074 0.96325392 30575178
-0.041308016 0.21851683 0.96527916 30575178
-0.03990002 0.21856976 0.96652228 30575178
-0.038492396 0.21862265 0.96776551 30575178
-0.037684038 0.21891895 0.96979612 30575178
-0.036275014 0.21897188 0.97104055 30575178
-0.035461888 0.21926841 0.97307497 30575178
-0.034646019 0.21956494 0.97511214 30575178
-0.033827215 0.21986154 0.97715205 19109687
-0.032413498 0.2199147 0.97840029 19109687
-0.031590059 0.22021157 0.98044413 19109687
-0.030763954 0.22050855 0.98249036 19109687
-0.029934585 0.22080567 0.98453945 19109687
-0.028516456 0.22085899 0.98579174 19109687
-0.028267369 0.22140008 0.98864537 26623614
-0.028012082 0.22194147 0.99150413 26623614
-0.027750924 0.22248301 0.99436814 26623614
-0.028063819 0.22326896 0.99804217 30121791
-0.027789012 0.22381094 1.0009181 30121791
-0.027508721 0.22435331 1.0037994 17361128
-0.028373286 0.22538427 1.0083029 17361128
-0.028077826 0.22592723 1.0111971 17361128
-0.028349325 0.22671458 1.0149076 32971579
-0.02975367 0.22799125 1.0202515 32971579
-0.031712845 0.22951293 1.0264218 19692796
-0.034790233 0.23152414 1.0342381 19692796
-0.040110335 0.23451471 1.0453415 32323993
-0.045959547 0.23775125 1.0572937 28891352
-0.05007951 0.24025515 1.066823 32777380
-0.052483395 0.24202594 1.0739176 32777380
-0.052063152 0.2425735 1.0769222 32777380
-0.051637068 0.24312139 1.079932 32777380
-0.050647214 0.24342442 1.0821226 32777380
-0.04965435 0.24372762 1.084316 20664303
-0.048103973 0.24378598 1.0856853 20664303
-0.046553329 0.24384418 1.0870543 20664303
-0.045554981 0.2441476 1.0892529 20664303
-0.043452606 0.24396083 1.0897925 20664303
-0.04190208 0.24401915 1.0911615 20664303
-0.040352002 0.24407732 1.0925307 20664303
-0.038801417 0.24413568 1.0938997 20729036
-0.037795171 0.24443945 1.0961051 24227213
-0.036786214 0.2447432 1.0983129 24227213
-0.034150168 0.24431065 1.098007 24227213
-0.032599643 0.24436894 1.099376 24227213
-0.030510917 0.24418166 1.0999041 24227213
-0.029498622 0.24448556 1.1021142 24227213
-0.027948305 0.24454385 1.1034834 24227213
-0.026931778 0.24484801 1.1056979 24227213
-0.025379941 0.24490625 1.1070683 24227213
-0.023828134 0.24496472 1.108439 24227213
-0.021217301 0.24453104 1.1081107 22543131
-0.019140437 0.24434328 1.108628 22543131
-0.017066583 0.24415544 1.1091425 31158031
-0.015520379 0.24421355 1.1105075 22543131
-0.013450697 0.24402553 1.1110182 22543131
-0.012428448 0.24432972 1.1132379 24291946
-0.011403009 0.2446343 1.1154602 24291946
-0.0093366057 0.24444604 1.1159682 27724587
-0.0077905208 0.24450409 1.1173334 27724587
-0.0062446743 0.24456218 1.1186986 27724587
-0.0046984702 0.24462041 1.1200638 27724587
-0.0031526536 0.24467856 1.121429 27724587
-0.0021181852 0.24498332 1.1236589 17943981
-6.0781837e-05 0.24479485 1.1241593 17943981
0.00097669661 0.24509975 1.1263919 17943981
-0.23663817 0.24197346 0.93482965 31935339
-0.23579578 0.24227297 0.93689018 31935339
-0.23350145 0.24209148 0.93759948 31935339
-0.23193331 0.2421504 0.93898398 25004521
-0.22964402 0.24196857 0.93968922 25004521
-0.22807713 0.24202746 0.94107276 25004521
-0.22651039 0.24208641 0.94245642 25004521
-0.224227 0.24190432 0.94315618 25004521
-0.22337686 0.24220416 0.94522351 25004521
-0.22109635 0.24202216 0.94592053 23320439
-0.2195311 0.24208099 0.94730288 23320439
-0.21796568 0.24213988 0.94868487 23320439
-0.21710967 0.24243987 0.95075756 23320439
-0.21554311 0.24249876 0.95214123 23320439
-0.21327005 0.24231634 0.9528318 23320439
-0.21170448 0.24237522 0.95421404 23320439
-0.20943584 0.24219272 0.95490068 23320439
-0.20857395 0.242493 0.9569785 23320439
-0.20630826 0.24231037 0.95766252 26753080
-0.2054434 0.24261063 0.95974296 26753080
-0.20387815 0.24266943 0.9611252 26753080
-0.2030087 0.24297017 0.96320933 26753080
-0.2014419 0.24302906 0.96459311 26753080
-0.19918214 0.2428461 0.96527189 19951728
-0.19761704 0.24290502 0.96665412 19951728
-0.19536154 0.24272203 0.96732873 24033014
-0.19379802 0.24278066 0.96871012 24033014
-0.19223408 0.24283955 0.97009081 24033014
-0.19204123 0.24338251 0.97289437 24033014
-0.18979056 0.24319923 0.97356528 24033014
-0.18822508 0.24325809 0.97494751 24033014
-0.18665977 0.24331704 0.97632962 27465655
-0.18441503 0.24313354 0.97699517 21700543
-0.1835293 0.24343473 0.97909409 21700543
-0.18128754 0.2432512 0.97975725 21700543
-0.18039869 0.24355236 0.98185867 27465655
-0.17815982 0.24336869 0.98251909 24615867
-0.17794035 0.24391264 0.98534614 24615867
-0.17503206 0.24348629 0.98528069 24615867
-0.17346834 0.24354526 0.98666173 26688347
-0.1712368 0.2433612 0.98731571 26688347
-0.16967438 0.24341995 0.9886952 26688347
-0.16545366 0.24250734 0.98715633 26688347
-0.16124438 0.24159414 0.98560661 26688347
-0.13683181 0.23447624 0.96766692 24810066
-0.12743931 0.23161507 0.9601621 21311889
-0.12070523 0.22972542 0.95557576 30639911
-0.11464936 0.2280781 0.95170718 24291946
-0.11057271 0.22716004 0.950041 24291946
-0.10715903 0.22648478 0.9491058 24291946
-0.10440394 0.22605261 0.94890517 26040761
-0.1010069 0.22537684 0.94795543 26040761
-0.098265082 0.22494426 0.947743 26040761
-0.09488444 0.22426775 0.94677883 26040761
-0.092156664 0.22383466 0.94655472 19692796
-0.088791758 0.22315758 0.94557589 19692796
-0.086076915 0.22272387 0.9453401 19692796
-0.084007636 0.22253388 0.94585091 19692796
-0.081941038 0.22234365 0.9463591 33295500
-0.07924135 0.22190952 0.94611007 33295500
-0.077182248 0.22171903 0.9466117 33295500
-0.075126186 0.22152847 0.94711083 33295500
-0.073073223 0.22133791 0.94760698 33295500
-0.071023136 0.22114712 0.94810075 33295500
-0.068975791 0.22095618 0.94859189 33295500
-0.067559198 0.22100943 0.94984287 17749526
-0.064890698 0.22057411 0.94956619 17749526
-0.062228218 0.22013849 0.94928449 17749526
-0.060194343 0.21994707 0.94976372 17749526
-0.058784932 0.22000015 0.95100826 17749526
-0.056755885 0.21980852 0.95148355 17749526
-0.055347994 0.21986154 0.95272654 17749526
-0.054557428 0.22015908 0.95474142 21182423
-0.052532539 0.21996725 0.95521277 21182423
-0.051124841 0.22002026 0.95645601 21182423
-0.049104378 0.21982843 0.95692319 21182423
-0.047698244 0.21988124 0.95816511 21182423
-0.046291932 0.21993414 0.95940679 21182423
-0.044885635 0.219987 0.9606486 30575178
-0.044086292 0.22028488 0.96267122 30575178
-0.04267858 0.2203379 0.96391445 30575178
-0.041874543 0.22063598 0.96594089 30575178
-0.04046531 0.22068897 0.96718532 30575178
-0.039056107 0.22074193 0.96842974 30575178
-0.038246095 0.22104025 0.97046143 30575178
-0.036835462 0.22109321 0.97170705 30575178
-0.03542468 0.22114635 0.9729529 30575178
-0.035203472 0.22169033 0.97578126 30575178
-0.034383312 0.22198913 0.97782236 19109687
-0.033559918 0.22228786 0.97986597 19109687
-0.0327335 0.22258693 0.9819122 19109687
-0.031904206 0.22288588 0.98396093 19109687
-0.030484691 0.22293925 0.98521465 19109687
-0.02965112 0.22323829 0.98726767 26623614
-0.029398367 0.22378358 0.99012345 26623614
-0.028557345 0.22408316 0.99218279 30639911
-0.028876171 0.22487479 0.9958511 30639911
-0.029185787 0.2256667 0.99952728 30639911
-0.029486611 0.22645903 1.0032115 17361128
-0.029201731 0.22700548 1.0060964 17361128
-0.030061558 0.22804445 1.0106032 17361128
-0.029761776 0.2285915 1.0135014 32971579
-0.030028477 0.22938502 1.0172155 32971579
-0.031428233 0.23067176 1.0225623 32971579
-0.033951953 0.2324518 1.0295496 19692796
-0.037591293 0.23472571 1.0381854 19692796
-0.042903289 0.23774031 1.0492933 28891352
-0.047049686 0.24026296 1.0587978 28891352
-0.050039306 0.24229342 1.0666904 32777380
-0.051318482 0.2435846 1.0721438 32777380
-0.050340787 0.24388927 1.0743241 32777380
-0.049359456 0.24419403 1.0765066 32777380
-0.048375651 0.24449885 1.078692 32777380
-0.047389045 0.24480376 1.0808799 32777380
-0.04584457 0.24486187 1.0822442 32777380
-0.044299945 0.24491993 1.0836079 20664303
-0.042755619 0.24497795 1.0849717 20664303
-0.040660545 0.24478894 1.0855048 20664303
-0.039117858 0.244847 1.0868671 20729036
-0.037574634 0.24490505 1.0882297 20729036
-0.036031619 0.24496302 1.0895925 20729036
-0.034488812 0.24502102 1.0909545 20729036
-0.033488646 0.24532658 1.0931547 20729036
-0.030861452 0.24488956 1.0928411 20729036
-0.029319927 0.24494746 1.0942025 24227213
-0.027778432 0.2450054 1.0955639 24227213
-0.026773944 0.24531105 1.0977676 24227213
-0.025766239 0.24561691 1.0999739 24227213
-0.024221703 0.24567506 1.1013377 24227213
-0.022677168 0.24573311 1.1027017 31158031
-0.021132603 0.24579114 1.1040654 31158031
-0.018529281 0.24535328 1.1037312 31158031
-0.016460016 0.24516332 1.1042421 31158031
-0.014393434 0.24497318 1.1047499 31158031
-0.012854978 0.24503097 1.1061087 24291946
-0.010793403 0.24484059 1.1066132 24291946
-0.0097779185 0.24514663 1.1088254 24291946
-0.0082394332 0.24520442 1.1101844 24291946
-0.0067009777 0.24526232 1.1115432 24291946
-0.0051623434 0.2453202 1.1129014 24291946
-0.0041396171 0.2456266 1.1151211 24291946
-0.0020850748 0.24543592 1.1156185 17943981
-0.00054679811 0.24549377 1.1169775 17943981
0.00048036873 0.24580026 1.1192009 17943981
0.0020203143 0.24585819 1.1205609 17943981
0.0035603493 0.24591601 1.1219208 17943981
0.0051001757 0.245974 1.1232808 17943981
-0.23368867 0.24309114 0.93199652 31935339
-0.23212643 0.24314991 0.93337625 31935339
-0.22984 0.24296606 0.93407851 31935339
-0.22900181 0.24326748 0.93613523 31935339
-0.22671835 0.24308333 0.93683535 31935339
-0.22515748 0.24314207 0.93821353 25004521
-0.22359647 0.24320084 0.93959159 25004521
-0.22275253 0.24350238 0.94165379 25004521
-0.21975987 0.24307534 0.94166356 16972474
-0.21820049 0.24313387 0.94304043 16972474
-0.21735321 0.24343547 0.94510502 23320439
-0.21579216 0.24349424 0.94648319 16972474
-0.21423171 0.24355298 0.94786161 16972474
-0.21267082 0.24361163 0.94923979 23320439
-0.21111004 0.24367028 0.95061797 23320439
-0.2088445 0.24348566 0.95130235 23320439
-0.20658161 0.24330091 0.95198387 23320439
-0.20502351 0.2433596 0.95335954 26753080
-0.20276566 0.24317458 0.95403725 26753080
-0.20190819 0.24347666 0.95611089 26753080
-0.20035003 0.24353531 0.95748621 26753080
-0.19879232 0.24359381 0.95886236 26753080
-0.19723456 0.24365243 0.9602378 26753080
-0.19498383 0.24346715 0.96090907 21570821
-0.19342758 0.24352577 0.96228343 21570821
-0.19187091 0.24358433 0.96365744 21570821
-0.19031475 0.24364269 0.96503204 21570821
-0.18944515 0.24394524 0.96711618 24033014
-0.18925817 0.24449196 0.96991414 24033014
-0.18769743 0.2445507 0.97129232 24033014
-0.18545406 0.24436516 0.97195679 24033014
-0.18457578 0.2446681 0.97404903 21700543
-0.18233527 0.24448252 0.974711 21700543
-0.18009786 0.24429673 0.97537011 21700543
-0.17786373 0.24411094 0.97602695 21700543
-0.17698224 0.24441394 0.97812146 21700543
-0.17475076 0.24422804 0.97877568 21700543
-0.1738665 0.24453107 0.98087269 21700543
-0.17163818 0.24434507 0.98152405 26688347
-0.17008172 0.24440354 0.98289841 26688347
-0.16785757 0.2442174 0.98354596 26688347
-0.16630296 0.24427581 0.98491925 26688347
-0.16341864 0.24384463 0.98483294 26688347
-0.15987761 0.24316823 0.98401088 26688347
-0.15502165 0.24200159 0.98171681 26688347
-0.14008574 0.23770618 0.97121066 24810066
-0.13068603 0.23482168 0.96371382 24810066
-0.12263356 0.23242611 0.95766014 30639911
-0.11657347 0.23076504 0.95379668 30639911
-0.11183976 0.22959375 0.95139486 24291946
-0.10842325 0.2289128 0.95046264 24291946
-0.10501571 0.2282314 0.9495222 24291946
-0.10226506 0.22779521 0.94931811 26040761
-0.099520877 0.2273587 0.94910854 26040761
-0.096137002 0.22667637 0.94814748 26040761
-0.092762247 0.22599378 0.94717818 19692796
-0.090038672 0.22555655 0.9469505 19692796
-0.087321118 0.22511894 0.94671756 19692796
-0.085248664 0.22492719 0.94723088 19692796
-0.082541525 0.2244893 0.946989 30316246
-0.080476567 0.22429708 0.94749588 30316246
-0.078414559 0.22410485 0.94800001 30316246
-0.07635574 0.2239123 0.94850188 33295500
-0.074299827 0.22371981 0.94900113 33295500
-0.072246566 0.22352722 0.94949764 33295500
-0.070196584 0.22333446 0.94999152 17749526
-0.068149522 0.22314152 0.95048267 17749526
-0.066105247 0.22294864 0.95097107 17749526
-0.063439816 0.22250918 0.95069224 17749526
-0.062026039 0.2225624 0.95194072 17749526
-0.059990928 0.22236902 0.95242137 17749526
-0.057958588 0.22217566 0.95289952 17749526
-0.055929393 0.22198215 0.95337516 17749526
-0.055137351 0.22228166 0.95539099 21182423
-0.053111151 0.22208801 0.95586401 21182423
-0.051701888 0.22214106 0.95710832 21182423
-0.04967995 0.22194725 0.95757717 21182423
-0.048272252 0.22200024 0.95882016 21182423
-0.047474012 0.22230005 0.96084136 21182423
-0.046065137 0.22235301 0.96208566 21182423
-0.045262486 0.22265309 0.96411079 30575178
-0.044457048 0.22295314 0.96613854 30575178
-0.043044761 0.22300619 0.96738559 30575178
-0.041632399 0.22305936 0.96863252 30575178
-0.040220335 0.22311255 0.96987993 30575178
-0.039407521 0.22341275 0.97191411 30575178
-0.037395939 0.22321859 0.97237366 30575178
-0.036579803 0.22351921 0.97441071 30575178
-0.035761222 0.22381979 0.97645015 19109687
-0.034939244 0.22412056 0.97849244 27077001
-0.034114465 0.22442129 0.98053735 19109687
-0.033286378 0.22472233 0.98258466 23709093
-0.033044308 0.22527114 0.98543125 23709093
-0.032209381 0.22557238 0.98748511 23709093
-0.031371012 0.22587368 0.98954171 23709093
-0.031114236 0.22642311 0.9924013 30639911
-0.030268416 0.22672462 0.9944647 30639911
-0.030001149 0.22727442 0.99733347 30639911
-0.030307934 0.22807238 1.0010121 30639911
-0.030027404 0.2286225 1.0038927 17361128
-0.029740706 0.22917306 1.0067785 17361128
-0.030598775 0.2302202 1.0112863 17361128
-0.031445548 0.23126766 1.0158045 32971579
-0.032279864 0.23231569 1.0203333 32971579
-0.034244522 0.23386079 1.0264969 19692796
-0.037330195 0.23590338 1.0343034 19692796
-0.04152821 0.23844391 1.0437605 32323993
-0.045129851 0.24073705 1.0524278 28891352
-0.047574952 0.24253398 1.0594838 28891352
-0.049435303 0.24408302 1.0657394 32777380
-0.049591765 0.2448867 1.0695503 32777380
-0.048057809 0.24494427 1.070905 32777380
-0.047082826 0.24525088 1.0730824 32777380
-0.045547083 0.24530864 1.0744383 32777380
-0.044567719 0.24561524 1.0766199 32777380
-0.043030724 0.24567312 1.0779769 32777380
-0.042046651 0.24597993 1.080162 32777380
-0.039956674 0.24578869 1.0806916 32777380
-0.03841953 0.24584648 1.0820489 20729036
-0.036882237 0.24590424 1.0834062 20729036
-0.035345599 0.24596205 1.0847635 20729036
-0.033262774 0.24577048 1.0852859 20729036
-0.03118293 0.24557877 1.0858061 20729036
-0.030191824 0.24588597 1.0879982 20729036
-0.028114811 0.24569419 1.0885155 20729036
-0.027120426 0.24600151 1.0907102 20729036
-0.025584832 0.24605927 1.092066 20729036
-0.024586186 0.24636662 1.0942645 24227213
-0.023048863 0.2464245 1.0956216 31158031
-0.022045448 0.246732 1.0978239 31158031
-0.020507112 0.24678981 1.0991824 31158031
-0.018968627 0.24684769 1.1005411 31158031
-0.016371295 0.24640575 1.1002018 31158031
-0.014307961 0.24621341 1.1007073 31158031
-0.012247667 0.24602106 1.1012106 21894742
-0.010714963 0.24607867 1.1025641 21894742
-0.0086591691 0.24588603 1.1030631 21894742
-0.007649973 0.24619389 1.1052704 24291946
-0.0061174184 0.24625149 1.1066241 24291946
-0.0045845658 0.24630925 1.1079774 24291946
-0.0030520111 0.24636686 1.1093307 24291946
-0.0015195161 0.24642444 1.1106842 31223020
1.2949109e-05 0.24648207 1.1120374 31223020
0.0015456527 0.24653974 1.1133909 31223020
0.0030781776 0.24659729 1.1147442 31223020
0.0051211864 0.24640438 1.115231 31223020
0.0066519231 0.24646193 1.1165833 17943981
0.0081830472 0.24651942 1.1179354 17943981
-0.23001249 0.24394861 0.9284901 31935339
-0.22845758 0.24400696 0.92986304 31935339
-0.22617851 0.24382097 0.9305591 18656300
-0.22462527 0.24387935 0.93193096 18656300
-0.22307174 0.2439377 0.93330258 31935339
-0.22151826 0.24399614 0.93467444 16972474
-0.21924691 0.24380985 0.93536395 16972474
-0.21841161 0.24411294 0.93741769 16972474
-0.21542795 0.24368155 0.93741995 16972474
-0.21459125 0.24398482 0.93947536 16972474
-0.21303932 0.24404326 0.94084543 16972474
-0.21219791 0.24434671 0.94290465 16972474
-0.21064453 0.24440512 0.94427615 16972474
-0.20979874 0.24470878 0.94633943 16972474
-0.20753758 0.24452192 0.94701964 16972474
-0.20598437 0.24458027 0.94839174 23903292
-0.20372753 0.24439335 0.94906813 26753080
-0.20217602 0.24445164 0.95043856 26753080
-0.19992356 0.24426451 0.9511109 26753080
-0.19907196 0.24456838 0.9531793 26753080
-0.19682278 0.24438104 0.95384914 26753080
-0.19527231 0.24443951 0.95521837 21570821
-0.19372182 0.24449784 0.95658749 21570821
-0.19217165 0.24455607 0.95795661 21570821
-0.19062097 0.24461436 0.95932537 21570821
-0.18907063 0.24467257 0.96069473 21570821
-0.18820862 0.24497694 0.96277207 21570821
-0.18665682 0.24503523 0.9641425 21570821
-0.18647562 0.24558562 0.96693522 24033014
-0.18423657 0.24539807 0.96759564 21700543
-0.18268327 0.24545649 0.96896726 21700543
-0.18112968 0.24551487 0.970339 21700543
-0.17889746 0.24532694 0.97099465 21700543
-0.17666732 0.24513903 0.97164756 21700543
-0.17444058 0.24495101 0.97229761 21700543
-0.17289124 0.24500927 0.9736653 21700543
-0.17201583 0.24531397 0.97575468 21700543
-0.17113765 0.24561876 0.97784668 27271200
-0.16891508 0.24543044 0.97849303 26688347
-0.16736455 0.24548885 0.97986203 26688347
-0.16514681 0.24530041 0.98050433 26688347
-0.16359769 0.24535871 0.98187226 26688347
-0.16005485 0.24467653 0.98105162 26688347
-0.15784745 0.24448761 0.98168486 26688347
-0.1543196 0.24380481 0.98085135 26688347
-0.14882036 0.24238083 0.97780997 29668404
-0.14136313 0.24021477 0.9725489 33101301
-0.1339324 0.23804796 0.96726424 24810066
-0.1258729 0.23563281 0.96121842 20793769
-0.11915152 0.23371097 0.95662397 30639911
-0.11375915 0.23228285 0.95348793 24291946
-0.11033851 0.23159608 0.95255977 24291946
-0.10692641 0.23090896 0.9516241 24291946
-0.10352366 0.23022142 0.9506802 26040761
-0.10077645 0.22978112 0.95047373 26040761
-0.097389817 0.22909304 0.9495154 26040761
-0.094012097 0.22840458 0.94854945 26040761
-0.091285288 0.22796348 0.94832438 19692796
-0.088565022 0.22752219 0.94809431 19692796
-0.086489663 0.22732845 0.9486106 19692796
-0.084417477 0.22713447 0.94912416 19692796
-0.08171168 0.22669268 0.94888097 30316246
-0.080281675 0.22674635 0.95014387 30316246
-0.077584863 0.22630414 0.94989258 30316246
-0.0748941 0.22586167 0.9496364 30316246
-0.072839424 0.22566715 0.95013422 30316246
-0.070787981 0.22547239 0.95062965 30316246
-0.068739668 0.22527775 0.95112222 30316246
-0.066694126 0.22508276 0.95161229 17749526
-0.064026952 0.22463945 0.95133489 17749526
-0.062611893 0.22469276 0.95258445 17749526
-0.060575157 0.22449744 0.95306653 17749526
-0.058541477 0.22430202 0.95354646 17749526
-0.056510612 0.22410655 0.95402318 17749526
-0.055717245 0.22440827 0.95604056 32064805
-0.054305062 0.22446144 0.95728725 32064805
-0.052278802 0.22426575 0.95776027 32064805
-0.050868139 0.22431871 0.95900613 32064805
-0.049457356 0.22437182 0.96025151 32064805
-0.048046589 0.2244249 0.96149749 32064805
-0.047244161 0.22472686 0.96352237 32064805
-0.046438605 0.22502899 0.96554989 27077001
-0.045024976 0.22508216 0.96679837 30575178
-0.04361096 0.22513533 0.96804684 30575178
-0.042197451 0.22518843 0.96929497 30575178
-0.040784091 0.22524154 0.97054356 27077001
-0.039370269 0.22529471 0.9717918 30575178
-0.038554177 0.22559726 0.97382861 30575178
-0.037138984 0.22565049 0.97507805 30575178
-0.036318526 0.22595316 0.97711891 27077001
-0.035495237 0.22625583 0.9791624 27077001
-0.035260364 0.22680837 0.98200196 23709093
-0.034429669 0.22711143 0.98405188 23709093
-0.033595771 0.22741461 0.98610443 23709093
-0.032759055 0.22771788 0.9881596 23709093
-0.031919196 0.2280212 0.99021739 23709093
-0.03166078 0.22857463 0.99307805 30639911
-0.030813441 0.22887832 0.99514264 30639911
-0.031126246 0.22968197 0.99881536 30639911
-0.031429842 0.23048604 1.002496 30639911
-0.031724349 0.23129046 1.0061848 17361128
-0.031433359 0.2318449 1.0090742 17361128
-0.032286867 0.23290008 1.0135853 32971579
-0.03255482 0.23370546 1.0172975 32971579
-0.033958718 0.23501176 1.0226393 32971579
-0.037060514 0.23706961 1.0304303 19692796
-0.039569065 0.23887801 1.0374289 19692796
-0.043192759 0.24118811 1.0460751 28891352
-0.045090064 0.24274766 1.0522969 28891352
-0.047534838 0.24455836 1.0593522 28891352
-0.047704682 0.2453675 1.0631511 32777380
-0.047865406 0.24617681 1.066958 32777380
-0.046896175 0.24648502 1.0691297 32777380
-0.045365229 0.24654263 1.0704818 32777380
-0.043834373 0.24660012 1.0718338 32777380
-0.042859122 0.24690872 1.0740111 32777380
-0.040771976 0.2467154 1.074538 32777380
-0.039240822 0.24677297 1.0758898 27077001
-0.037709817 0.24683052 1.0772419 27077001
-0.036178544 0.24688807 1.078594 20729036
-0.034647509 0.24694565 1.079946 20729036
-0.033116415 0.24700326 1.0812979 20729036
-0.031039551 0.24680957 1.0818155 20729036
-0.028965965 0.24661565 1.0823307 20729036
-0.027437791 0.24667317 1.0836802 20729036
-0.025368318 0.24647909 1.0841908 20729036
-0.023841485 0.24653655 1.0855391 20729036
-0.02285336 0.24684545 1.0877283 27659854
-0.021861896 0.24715459 1.0899203 31158031
-0.020332143 0.2472122 1.0912707 31158031
-0.019336268 0.2475214 1.0934665 31158031
-0.017805234 0.24757895 1.0948184 31158031
-0.016274109 0.24763656 1.0961704 31158031
-0.013684675 0.24719021 1.095825 31158031
-0.011628553 0.24699569 1.0963242 21894742
-0.0095755309 0.2468012 1.0968206 21894742
-0.0085753649 0.24711049 1.0990202 21894742
-0.006001547 0.24666381 1.09866 21894742
-0.0050000399 0.24697328 1.1008608 21894742
-0.0034749657 0.24703056 1.1022079 21894742
-0.001430586 0.24683574 1.1026964 28891352
9.3057752e-05 0.24689299 1.1040421 28891352
0.0011005849 0.24720258 1.1062481 31223020
0.0031402856 0.24700749 1.1067328 31223020
0.0046639889 0.24706477 1.1080782 31223020
0.0066989809 0.24686956 1.1085594 31223020
0.007711187 0.24717942 1.1107695 31223020
0.0092347711 0.24723664 1.1121149 19757529
0.010758564 0.24729395 1.1134603 19757529
0.011776552 0.24760401 1.1156757 23255706
-0.22779043 0.24527913 0.92633313 18656300
-0.2247891 0.24484444 0.92635125 18656300
-0.22324179 0.24490261 0.92771775 18656300
-0.22169431 0.24496076 0.92908424 18656300
-0.22014694 0.24501908 0.93045086 18656300
-0.21859942 0.24507731 0.93181723 18656300
-0.21705185 0.24513546 0.93318373 16972474
-0.21550457 0.24519348 0.93455023 16972474
-0.21252681 0.24475795 0.93454713 16972474
-0.21169604 0.24506289 0.93659705 16972474
-0.20943789 0.24487412 0.93727499 16972474
-0.20860402 0.24517927 0.93932742 16972474
-0.20705788 0.24523729 0.94069248 16972474
-0.20692731 0.24578986 0.94344026 16972474
-0.20467232 0.24560091 0.94411546 23903292
-0.2024201 0.24541169 0.94478804 23903292
-0.20017068 0.24522251 0.94545788 23903292
-0.19792463 0.2450332 0.94612545 23903292
-0.19638149 0.24509126 0.94748801 23903292
-0.19483857 0.24514928 0.94885045 18138180
-0.19329564 0.24520725 0.95021313 18138180
-0.19175296 0.24526528 0.95157558 18138180
-0.19090421 0.24557099 0.95364112 18138180
-0.18866681 0.24538136 0.9543007 21570821
-0.1871237 0.24543932 0.95566314 21570821
-0.18627046 0.24574527 0.95773274 21570821
-0.18472613 0.24580324 0.95909685 28567431
-0.18318157 0.24586141 0.96046036 28567431
-0.18232261 0.24616739 0.9625352 28567431
-0.18077628 0.2462256 0.96390027 28567431
-0.17923041 0.2462838 0.96526557 21700543
-0.17768459 0.24634188 0.96663064 21700543
-0.17613856 0.24639988 0.96799594 21700543
-0.17323662 0.24596155 0.96792608 27271200
-0.17169355 0.2460196 0.96928853 27271200
-0.17015056 0.24607757 0.97065109 27271200
-0.16860776 0.24613559 0.97201365 27271200
-0.16840874 0.24669057 0.97482151 27271200
-0.16686241 0.24674875 0.97618669 26688347
-0.16531666 0.24680689 0.97755188 26688347
-0.16310336 0.2466163 0.9781906 26688347
-0.16155891 0.24667442 0.97955436 26688347
-0.15868501 0.24623489 0.97945958 26688347
-0.15581752 0.24579513 0.97935957 17490594
-0.15361755 0.24560407 0.97998649 17490594
-0.14944015 0.24466592 0.9784109 29668404
-0.14329888 0.2429803 0.97462124 26170227
-0.13652126 0.24104488 0.97007757 33101301
-0.12911193 0.23885942 0.9647755 24810066
-0.12238328 0.23692203 0.96018845 20793769
-0.11698388 0.23548245 0.95705968 20793769
-0.11225344 0.2342912 0.95465678 24291946
-0.10818742 0.23334891 0.9529826 24291946
-0.10478167 0.2326557 0.9520418 24291946
-0.10203154 0.23221147 0.95183831 26040761
-0.097996697 0.23126799 0.9501366 26040761
-0.094617933 0.23057362 0.94917232 26040761
-0.091889769 0.23012871 0.94894904 19692796
-0.089808434 0.22993308 0.9494707 19692796
-0.087730259 0.22973761 0.94998974 19692796
-0.085017279 0.22929204 0.94975322 19692796
-0.082946554 0.22909606 0.95026582 19692796
-0.080878764 0.22889996 0.95077556 30316246
-0.078814015 0.2287038 0.9512828 30316246
-0.076120108 0.22825751 0.95102924 30316246
-0.074062854 0.22806117 0.95153016 30316246
-0.072008371 0.2278645 0.9520281 30316246
-0.06995675 0.2276679 0.95252365 30316246
-0.067908525 0.22747117 0.95301634 30316246
-0.065862879 0.2272743 0.95350665 17749526
-0.063820496 0.22707719 0.9539941 17749526
-0.061780825 0.22688019 0.95447904 30899099
-0.059744313 0.22668299 0.95496148 32064805
-0.057710513 0.22648567 0.95544118 32064805
-0.056297138 0.22653881 0.95668942 32064805
-0.054883346 0.22659203 0.95793778 32064805
-0.053469613 0.22664508 0.95918626 32064805
-0.05205597 0.22669828 0.96043438 32064805
-0.050642267 0.22675148 0.96168274 32064805
-0.049838111 0.22705543 0.96370894 32064805
-0.048423037 0.22710872 0.96495861 32064805
-0.047007993 0.22716194 0.96620816 27077001
-0.046197772 0.22746617 0.96823949 27077001
-0.044781044 0.22751948 0.96949059 30575178
-0.043364346 0.22757271 0.97074169 27077001
-0.041947857 0.22762594 0.97199243 27077001
-0.040531024 0.22767922 0.97324353 27077001
-0.039114714 0.22773254 0.9744944 30575178
-0.038293898 0.22803712 0.97653502 27077001
-0.036875799 0.22809044 0.97778744 27077001
-0.036051035 0.22839531 0.97983176 27077001
-0.035814583 0.22895163 0.98267263 23709093
-0.035572454 0.22950834 0.98551875 23709093
-0.034147024 0.22956204 0.98677748 23709093
-0.033895865 0.23011908 0.98963147 23709093
-0.03305316 0.23042458 0.99169177 23709093
-0.032207415 0.23073024 0.99375445 30639911
-0.031941608 0.23128769 0.99662155 30639911
-0.03283228 0.23234934 1.0010993 30639911
-0.032551423 0.23290756 1.0039797 17361128
-0.032843098 0.23371792 1.0076704 17361128
-0.0325488 0.23427653 1.0105622 17361128
-0.033974811 0.23559186 1.0158839 32971579
-0.034812018 0.23665553 1.0204089 32971579
-0.036781892 0.23822433 1.0265656 19692796
-0.039305106 0.24004599 1.0335503 19692796
-0.042376831 0.2421208 1.0413663 28891352
-0.044856891 0.24394408 1.0483892 28891352
-0.046183363 0.24526307 1.0537982 28891352
-0.046364918 0.24607766 1.0575862 28891352
-0.045974001 0.24663997 1.0605636 28891352
-0.046139136 0.24745512 1.0643659 32777380
-0.045174614 0.24776521 1.0665338 23644360
-0.044206962 0.24807531 1.0687046 32777380
-0.042121455 0.24788007 1.0692301 32777380
-0.041150644 0.24819025 1.0714033 32777380
-0.039068118 0.24799478 1.0719264 27077001
-0.037541255 0.24805221 1.0732741 27077001
-0.03546305 0.24785668 1.0737934 27077001
-0.034487799 0.2481671 1.0759706 27077001
-0.032412812 0.24797136 1.0764871 27077001
-0.030887708 0.24802864 1.0778339 27077001
-0.028816745 0.24783266 1.078346 20729036
-0.026748911 0.24763668 1.0788562 20729036
-0.025226906 0.2476939 1.0802004 20729036
-0.023704872 0.24775112 1.0815446 27659854
-0.022182599 0.24780828 1.0828886 27659854
-0.020660505 0.24786556 1.0842328 27659854
-0.019674852 0.24817646 1.0864189 27659854
-0.018151179 0.2482338 1.0877643 27659854
-0.016627356 0.24829105 1.0891101 31158031
-0.015103802 0.24834824 1.0904553 31158031
-0.013580337 0.24840549 1.0918009 31158031
-0.010997966 0.24795511 1.091449 21894742
-0.0089494139 0.24775833 1.0919416 21894742
-0.0074302107 0.24781543 1.0932834 21894742
-0.0059107691 0.24787271 1.0946248 21894742
-0.0038685054 0.24767569 1.0951126 21894742
-0.0028724819 0.24798691 1.0973077 21894742
-0.00083304942 0.24778986 1.0977931 28891352
0.00068475306 0.24784693 1.099133 28891352
0.0022024363 0.24790397 1.1004734 28891352
0.0032043904 0.24821541 1.102674 28891352
0.0057522804 0.24776366 1.1022918 28891352
0.0072686523 0.24782065 1.103631 28891352
0.0087846667 0.24787769 1.1049697 19757529
0.010300979 0.24793464 1.1063087 19757529
0.011817262 0.24799162 1.1076474 19757529
0.012319401 0.2485581 1.1107233 19757529
0.01434429 0.24836043 1.1111953 19757529
0.015358135 0.24867243 1.1134062 19757529
-0.22411491 0.24610093 0.92282897 18656300
-0.22184668 0.24591041 0.92351621 18656300
-0.21958111 0.24571994 0.92420083 18656300
-0.21804108 0.24577782 0.92556053 18656300
-0.21650104 0.24583572 0.92692047 30251513
-0.21496086 0.24589369 0.92828041 30251513
-0.21342106 0.24595159 0.92964035 30251513
-0.2125975 0.24625817 0.9316836 30251513
-0.20962571 0.24581856 0.93167549 30251513
-0.20808761 0.24587631 0.93303436 16972474
-0.20726107 0.24618316 0.93507999 16972474
-0.20643161 0.24649006 0.93712848 23903292
-0.20418088 0.24629903 0.93779975 23903292
-0.20334856 0.24660599 0.93985087 23903292
-0.20110102 0.24641475 0.94051963 23903292
-0.19956087 0.24647272 0.94187945 23903292
-0.19661452 0.246032 0.94184929 23903292
-0.19507758 0.24608979 0.94320673 24486145
-0.19354026 0.24614763 0.94456393 18138180
-0.19200329 0.24620536 0.94592136 18138180
-0.19116347 0.24651274 0.94797879 18138180
-0.18962489 0.24657056 0.94933754 18138180
-0.18808635 0.24662834 0.95069593 18138180
-0.18724076 0.24693596 0.95275873 18138180
-0.1857007 0.24699384 0.95411891 18138180
-0.1834708 0.24680203 0.9547717 28567431
-0.1819322 0.24685982 0.95613045 28567431
-0.18039362 0.24691767 0.95748895 28567431
-0.17885502 0.24697545 0.9588477 28567431
