# .PCD v0.7 - Point Cloud Data file format
VERSION 0.7
FIELDS x y z rgba
SIZE 4 4 4 4
TYPE F F F U
COUNT 1 1 1 1
WIDTH 760
HEIGHT 1
VIEWPOINT 0 0 0 1 0 0 0
POINTS 760
DATA ascii
-0.022946438 -0.11671349 0.88463902 28437965
-0.031492434 -0.11209604 0.86916637 24356679
-0.025207849 -0.11434079 0.88193196 28437965
-0.012900585 -0.12868474 0.88860708 24356679
-0.0094542969 -0.1282611 0.89001292 24356679
-0.026491692 -0.12806956 0.87534606 24356679
-0.016392151 -0.12698957 0.88210213 24356679
-0.040784605 -0.12774311 0.8637377 24356679
-0.038062043 -0.12736964 0.86440456 24356679
-0.034032814 -0.12689912 0.86663401 24356679
-0.028686943 -0.12632988 0.87041998 24356679
-0.023321209 -0.12575662 0.87419337 24356679
-0.041814178 -0.1261286 0.86286026 24356679
-0.041037887 -0.12589985 0.8611747 24356679
-0.037016928 -0.12542298 0.86340797 24356679
-0.031680442 -0.12484331 0.86719739 24356679
-0.025671197 -0.12420942 0.87175542 24356679
-0.038050309 -0.1238072 0.86253226 24356679
-0.038290516 -0.11702591 0.86372858 24356679
-0.03996893 -0.11547913 0.86207074 24356679
-0.039838612 -0.11532357 0.85960418 24356679
-0.038414329 -0.11504551 0.85870314 24356679
-0.041645601 -0.11394005 0.86041337 24356679
-0.04204604 -0.11370334 0.85470849 24356679
-0.04202842 -0.11227829 0.86032122 24356679
-0.04176566 -0.11054944 0.86101151 24356679
-0.042281501 -0.1104733 0.85776532 24356679
-0.034184448 -0.10914428 0.97418183 18591567
-0.031417131 -0.10870966 0.9748103 18591567
-0.031682618 -0.10696989 0.97817189 18591567
-0.029495539 -0.10659365 0.97797734 18591567
-0.095870644 -0.1010047 0.98101974 31287753
-0.098428346 -0.099489495 0.97753191 31287753
-0.098493829 -0.099410102 0.97401708 31287753
-0.096953914 -0.099109344 0.97304267 31287753
-0.099378251 -0.097762622 0.97658551 31287753
-0.098907784 -0.097613283 0.97391742 31287753
-0.096291803 -0.097159721 0.97463238 31287753
-0.099321693 -0.095816448 0.97381794 31287753
-0.096169062 -0.095280722 0.97537696 31287753
-0.1535839 0.23290673 1.0253927 33036312
-0.15580373 0.22744663 1.0088925 26105494
-0.15307947 0.2425414 1.0067242 29603671
-0.15797044 0.24390712 1.0105519 29603671
-0.16004835 0.24645221 1.0006826 29603671
-0.01983878 -0.14264461 0.8579967 20275649
-0.041462362 -0.13388479 0.83640248 20858502
-0.029159918 -0.12834057 0.82737684 20858502
-0.033118382 -0.12924519 0.82906532 20858502
-0.030031279 -0.12716225 0.83168739 20858502
-0.030294001 -0.12666939 0.82873327 20858502
-0.034248814 -0.12758139 0.83042091 20858502
-0.039061487 -0.12733719 0.83641917 20858502
-0.04386723 -0.12711868 0.84240961 20858502
-0.050738677 -0.12714159 0.84779 20858502
-0.082808703 -0.13052101 0.86010873 16777216
-0.036000267 -0.12056575 0.85807067 24356679
-0.031560868 -0.11451289 0.82991922 30704644
-0.026895508 -0.1111468 0.82731068 30704644
-0.029630661 -0.11161599 0.8274262 30704644
-0.02619113 -0.10872915 0.82636362 30704644
-0.028927818 -0.10920192 0.82647508 30704644
-0.075274482 -0.1224316 0.86588079 27206467
-0.077899069 -0.12290991 0.86609638 23773826
-0.034858733 -0.10738189 0.83379132 30704644
-0.075987101 -0.12009486 0.86354017 27206467
-0.03842847 -0.10674813 0.83820963 30704644
-0.04357326 -0.10824975 0.84141481 30704644
-0.065185636 -0.11476781 0.85594618 27206467
-0.070842609 -0.11652528 0.86001086 27206467
-0.045911178 -0.10713311 0.8442952 30704644
-0.064480007 -0.11241779 0.85496181 27206467
-0.06893383 -0.11367547 0.85747063 27206467
-0.037318468 -0.094889827 0.8429805 27789320
-0.039054558 -0.093524128 0.84508282 27789320
-0.036896303 -0.091896661 0.83910692 27789320
-0.041419104 -0.11503416 0.95596534 31870606
-0.014642075 -0.10868613 0.95818394 22024208
-0.015363023 -0.10839341 0.95617193 22024208
-0.089324474 -0.13104576 0.9997738 32453459
-0.091845065 -0.13044265 0.99473327 32453459
-0.076224074 -0.12283654 0.97213238 31287753
-0.020533487 -0.10908326 0.96428543 18591567
-0.041657761 -0.11184452 0.95903116 31870606
-0.087141559 -0.12833749 0.99741453 32453459
-0.091694236 -0.12967579 0.99978358 32453459
-0.091662034 -0.12911102 0.99715072 32453459
-0.07818909 -0.11830923 0.95790523 31287753
-0.024419084 -0.10812032 0.96560627 18591567
-0.021763191 -0.10645718 0.96012419 22024208
-0.018453285 -0.10452026 0.95392758 22024208
-0.015163735 -0.102583 0.94771165 22024208
-0.019315973 -0.10308357 0.9464609 22024208
-0.026046067 -0.10524859 0.95076567 22024208
-0.038774371 -0.10930622 0.95873398 31870606
-0.047420129 -0.11229314 0.96522611 31870606
-0.087584391 -0.12670934 0.99791282 32453459
-0.09082666 -0.12750933 0.99884981 32453459
-0.090145707 -0.1266672 0.99549955 32453459
-0.084264785 -0.12363473 0.98640233 31287753
-0.079065412 -0.12087551 0.97799379 31287753
-0.077160344 -0.1189154 0.97047335 31287753
-0.079771936 -0.11944138 0.97067434 31287753
-0.081733927 -0.11969353 0.97015625 31287753
-0.079838783 -0.11830232 0.96528822 31287753
-0.082444564 -0.11882834 0.96549433 31287753
-0.020755365 -0.10643374 0.97004503 18591567
-0.026243672 -0.10691592 0.96753329 18591567
-0.024259791 -0.10551703 0.96275371 18591567
-0.018997326 -0.10216794 0.95175534 22024208
-0.017059997 -0.10076829 0.94693202 22024208
-0.020468399 -0.10157103 0.94770998 22024208
-0.045870259 -0.11031467 0.96632713 31870606
-0.088681906 -0.12535673 0.99912399 32453459
-0.089307681 -0.12506011 0.9972046 32453459
-0.083411902 -0.12143512 0.98547333 31287753
-0.080181748 -0.11891152 0.97654921 31287753
-0.084096178 -0.1194196 0.97552019 31287753
-0.086692497 -0.1199495 0.97573346 31287753
-0.08093825 -0.1168948 0.96652836 31287753
-0.020555004 -0.10440188 0.96989161 18591567
-0.023288801 -0.10493309 0.96997303 18591567
-0.02739276 -0.10544182 0.96876365 18591567
-0.026753709 -0.10458787 0.96537966 18591567
-0.026123151 -0.10373389 0.96198779 18591567
-0.02282615 -0.10177118 0.95579356 22024208
-0.087138787 -0.12232243 0.99484891 32453459
-0.0819107 -0.11895073 0.98383003 31287753
-0.083871335 -0.11863029 0.98065418 31287753
-0.085837409 -0.1183098 0.97747308 31287753
-0.086501226 -0.11801078 0.975519 31287753
-0.082678348 -0.1157686 0.96849161 31287753
-0.020355985 -0.10236641 0.96973962 18591567
-0.022414431 -0.10262249 0.96912748 18591567
-0.025144354 -0.10315744 0.96921057 18591567
-0.027230874 -0.1028331 0.96591681 18591567
-0.027941242 -0.10253135 0.9639197 18591567
-0.027986154 -0.10195071 0.96122187 22024208
-0.081753612 -0.11991302 0.99685949 32453459
-0.079753891 -0.11733624 0.98679429 31287753
-0.081711978 -0.11701402 0.9836219 31287753
-0.084313333 -0.11755111 0.98382622 31287753
-0.084322408 -0.11697096 0.98116225 31287753
-0.083134457 -0.11409086 0.96900493 31287753
-0.083175108 -0.11351021 0.9663114 31287753
-0.024947211 -0.10112374 0.96905512 18591567
-0.027672008 -0.10166243 0.96914095 18591567
-0.028378651 -0.10135901 0.9671486 18591567
-0.030426875 -0.1016171 0.96654552 18591567
-0.031804413 -0.1015944 0.96524769 18591567
-0.080309346 -0.11917854 1.0031228 32453459
-0.081543595 -0.11799099 0.99665338 32453459
-0.087383941 -0.11526863 0.97921056 31287753
-0.088105097 -0.1137978 0.97189814 31287753
-0.087505072 -0.11293223 0.96848363 31287753
-0.088185564 -0.11262915 0.96651548 31287753
-0.090138495 -0.11288884 0.96600229 31287753
-0.092721477 -0.11342985 0.96622151 31287753
-0.024078354 -0.098803855 0.96820933 18591567
-0.028148219 -0.099911325 0.96967703 18591567
-0.083327025 -0.11750064 1.001199 32453459
-0.063718006 -0.10666595 0.96930236 18008714
-0.080020204 -0.11256351 0.98177963 31287753
-0.087886125 -0.11243389 0.97436804 31287753
-0.089835405 -0.11269542 0.97385699 31287753
-0.091782212 -0.11295703 0.97334832 31287753
-0.09436132 -0.11350175 0.97356945 31287753
-0.096934825 -0.11404656 0.97379571 31287753
-0.10266562 -0.11600747 0.97767514 29020818
-0.10900792 -0.11825202 0.98230416 29020818
-0.057261959 -0.082107812 0.86403412 17425861
-0.02862443 -0.098160177 0.97021312 18591567
-0.081801474 -0.11501128 0.99958235 32453459
-0.064768225 -0.10642823 0.97589439 18008714
-0.05957742 -0.081104845 0.86687177 17425861
-0.062239796 -0.081651889 0.86701268 17425861
-0.022194579 -0.097117417 0.97990292 19174420
-0.066597581 -0.080927238 0.86924076 17425861
-0.026430115 -0.090617649 0.97357816 19174420
-0.029151514 -0.091178305 0.97365481 19174420
-0.08828336 -0.1026173 0.97207719 31287753
-0.097215533 -0.10610323 0.97950608 31287753
-0.10611297 -0.10958985 0.98696798 29020818
-0.12631111 -0.11712892 1.0022686 25522641
-0.029593214 -0.090036869 0.97686154 19174420
-0.031637892 -0.090307765 0.97625452 19174420
-0.037691653 -0.092340142 0.97978646 19174420
-0.041056365 -0.093198478 0.98057455 19174420
-0.081748933 -0.097706132 0.96466261 31287753
-0.093227431 -0.10239043 0.97495824 31287753
-0.11162739 -0.10970207 0.99060625 29020818
-0.036130086 -0.090334423 0.9809137 19174420
-0.044859499 -0.09294837 0.98455423 19174420
-0.06158635 -0.088382915 0.95033616 24939532
-0.061044678 -0.087472595 0.94689173 24939532
-0.081575081 -0.09571404 0.96446162 31287753
-0.090512812 -0.099243827 0.97186095 31287753
-0.098783523 -0.10247816 0.97856992 31287753
-0.10828431 -0.106305 0.98675734 31287753
-0.037939981 -0.089194231 0.98281842 19174420
-0.045992896 -0.091527574 0.98576981 19174420
-0.050002024 -0.092694528 0.98726159 19174420
-0.053999484 -0.093861602 0.98876435 19174420
-0.051201105 -0.081577912 0.93870693 21441355
-0.053872034 -0.0821504 0.93882507 21441355
-0.070527136 -0.089273863 0.95474881 16777216
-0.090335682 -0.097270101 0.97165304 31287753
-0.097970843 -0.10022676 0.97763222 31287753
-0.10620725 -0.10348172 0.9843623 31287753
-0.050466508 -0.090985559 0.98778468 19174420
-0.05379951 -0.091860905 0.9885934 19174420
-0.045300826 -0.07680738 0.93210143 21441355
-0.053716764 -0.080079466 0.93865103 21441355
-0.083766282 -0.092917554 0.96693903 31287753
-0.091424242 -0.095892057 0.97288686 31287753
-0.097790748 -0.098267712 0.97741824 31287753
-0.10287537 -0.10004443 0.98052555 31287753
-0.03685008 -0.085453853 0.98447651 19174420
-0.048276231 -0.088072754 0.9855482 19174420
-0.050950691 -0.08865241 0.98565859 19174420
-0.050976083 -0.088028252 0.98300427 19174420
-0.060562342 -0.081320442 0.94635075 24939532
-0.086127445 -0.092127621 0.9696129 31287753
-0.091879904 -0.094216131 0.9733997 31287753
-0.09698154 -0.096003525 0.9764846 31287753
-0.046753079 -0.085448131 0.98400563 19174420
-0.092335522 -0.092540227 0.97391266 31287753
-0.041217119 -0.081616342 0.98099703 22672853
-0.09342213 -0.091169529 0.97514421 31287753
-0.096627876 -0.092063405 0.97606379 31287753
-0.099824503 -0.092957392 0.976991 31287753
-0.038370311 -0.078349426 0.97809392 22672853
-0.03353864 -0.074139386 0.97313756 22672853
-0.15079652 0.21777174 1.0279202 26105494
-0.15086775 0.2208856 1.0221541 26105494
-0.15064542 0.22274953 1.018944 26105494
-0.15043186 0.22461367 1.0157256 26105494
-0.14915882 0.22770545 1.0112259 26105494
-0.14965181 0.2213746 1.0265703 26105494
-0.14941932 0.22324407 1.0233727 26105494
-0.14973383 0.22449794 1.0207992 26105494
-0.14951746 0.22636741 1.0175865 26105494
-0.14828329 0.22686374 1.0220237 26105494
-0.11665945 0.22057152 1.0664587 33036312
-0.11678214 0.22420639 1.0639205 33036312
-0.11873941 0.22360882 1.0632119 33036312
-0.12069361 0.22301117 1.0625062 33036312
-0.12264512 0.22241348 1.0618031 33036312
-0.12402277 0.22243613 1.0605054 33036312
-0.12596993 0.22183836 1.0598063 33036312
-0.13228713 0.22257221 1.0527184 33036312
-0.1342255 0.22197446 1.0520277 33036312
-0.13504194 0.22261751 1.0501227 33036312
-0.13641919 0.22264037 1.0488248 33036312
-0.13779669 0.22266304 1.0475271 33036312
-0.13944362 0.22394994 1.0437038 33036312
-0.14027186 0.22459343 1.0417879 33036312
-0.078365013 0.24300945 1.0693352 19757529
-0.11610673 0.22720745 1.0632749 33036312
-0.11806665 0.22660807 1.0625632 33036312
-0.1200233 0.22600856 1.0618541 33036312
-0.12197714 0.22540906 1.0611477 33036312
-0.12392794 0.22480956 1.0604441 33036312
-0.12530701 0.22483233 1.059145 33036312
-0.12668584 0.22485504 1.0578463 33036312
-0.13220106 0.22494587 1.0526493 33036312
-0.13358013 0.22496858 1.0513499 33036312
-0.13716038 0.22565919 1.0468421 33036312
-0.082669318 0.24234617 1.0708306 19757529
-0.087285981 0.24052185 1.0698814 19757529
-0.09047772 0.2386739 1.0702748 19757529
-0.09366104 0.23682582 1.0706763 19757529
-0.10080856 0.23377597 1.0696101 19757529
-0.11207984 0.23079407 1.0646584 33036312
-0.12464602 0.22783357 1.058486 33036312
-0.12740965 0.22787908 1.0558822 33036312
-0.12935571 0.22727758 1.0551822 33036312
-0.13293652 0.22797006 1.0506744 33036312
-0.13431831 0.22799292 1.0493729 33036312
-0.13652594 0.22866276 1.046159 33036312
-0.13680066 0.2299343 1.0436327 33036312
-0.13763379 0.23058164 1.0417142 33036312
-0.13902141 0.23060453 1.0404067 33036312
-0.14124767 0.23127469 1.0371757 33036312
-0.14263685 0.23129755 1.0358663 33036312
-0.14348041 0.23194498 1.0339384 33036312
-0.14463292 0.23386449 1.0294511 33036312
-0.14494486 0.23513663 1.0268898 33036312
-0.082939669 0.24287266 1.073854 19757529
-0.084950045 0.24227056 1.0730922 19757529
-0.086362213 0.24229372 1.0717614 19757529
-0.088368401 0.2416915 1.0710037 19757529
-0.093554989 0.23923552 1.070647 19757529
-0.096139491 0.23800755 1.0704772 19757529
-0.1040837 0.23559695 1.0675223 33036312
-0.10606261 0.23499432 1.0667906 33036312
-0.10803854 0.23439136 1.0660613 33036312
-0.11394899 0.23258281 1.0638902 33036312
-0.1153378 0.23260576 1.0625813 33036312
-0.11730097 0.23200268 1.0618644 33036312
-0.11868821 0.23202562 1.0605571 33036312
-0.120647 0.23142242 1.059844 33036312
-0.12203299 0.23144537 1.058538 33036312
-0.12398748 0.23084211 1.0578294 33036312
-0.12593873 0.230239 1.0571232 33036312
-0.12732188 0.23026174 1.0558197 33036312
-0.12870531 0.23028454 1.0545168 33036312
-0.1300882 0.2303074 1.0532134 33036312
-0.13147141 0.23033008 1.0519102 33036312
-0.13285466 0.23035288 1.050607 33036312
-0.13423769 0.23037565 1.0493038 33036312
-0.13506417 0.23102471 1.0473924 33036312
-0.13589357 0.2316736 1.0454781 33036312
-0.13617237 0.23294887 1.0429504 33036312
-0.13700889 0.23359799 1.0410297 33036312
-0.13784833 0.23424733 1.0391059 33036312
-0.13924028 0.23427013 1.0377944 33036312
-0.14372031 0.2356146 1.0313082 33036312
-0.14403044 0.23689038 1.0287504 33036312
-0.14488737 0.23753989 1.0268104 33036312
-0.14520769 0.2388159 1.0242436 33036312
-0.088635638 0.24220699 1.0740232 19757529
-0.090043351 0.24223009 1.0726967 19757529
-0.093227923 0.24037105 1.073091 19757529
-0.099201903 0.23855793 1.0708568 19757529
-0.10118771 0.23795348 1.0701175 19757529
-0.12585051 0.23262531 1.0570633 33036312
-0.12723528 0.23264813 1.055759 33036312
-0.12861978 0.2326709 1.0544541 33036312
-0.1300046 0.23269379 1.0531497 33036312
-0.13138925 0.2327165 1.0518451 33036312
-0.13221471 0.23336735 1.0499356 33036312
-0.13360067 0.23339015 1.0486295 33036312
-0.1344306 0.23404098 1.046716 33036312
-0.13581805 0.23406371 1.0454085 33036312
-0.13609897 0.23534292 1.0428805 33036312
-0.13748936 0.23536572 1.0415707 33036312
-0.13832979 0.23601672 1.0396476 33036312
-0.13972108 0.23603976 1.038336 33036312
-0.1405658 0.2366907 1.0364091 33036312
-0.14250527 0.23608553 1.0357134 33036312
-0.14335208 0.23673654 1.0337834 33036312
-0.14420228 0.23738778 1.0318511 33036312
-0.095706806 0.2415489 1.0728891 19757529
-0.13657968 0.23711041 1.0434215 33036312
-0.14020257 0.23780918 1.0388775 33036312
-0.14159425 0.23783216 1.0375664 33036312
-0.092370331 0.24134597 1.0804236 19757529
-0.093174025 0.24200007 1.078537 19757529
-0.094572932 0.24202308 1.0772188 19757529
-0.098550975 0.240807 1.0757298 19757529
-0.099946707 0.24082997 1.074414 19757529
-0.1019301 0.24022186 1.0736754 19757529
-0.10332441 0.24024484 1.072361 33036312
-0.11538927 0.23788035 1.0655112 33036312
-0.11677818 0.23790324 1.0642025 33036312
-0.1345589 0.23691449 1.0497081 33036312
-0.13538973 0.23756891 1.0477958 33036312
-0.13677739 0.23759195 1.0464883 33036312
-0.13816483 0.23761475 1.045181 33036312
-0.096032128 0.24124727 1.0813577 19757529
-0.096833333 0.24190316 1.0794744 19757529
-0.098818347 0.24129319 1.078732 19757529
-0.10021211 0.24131617 1.0774195 19757529
-0.1021933 0.24070612 1.0766811 19757529
-0.10358498 0.24072906 1.0753698 33036312
-0.10497692 0.24075192 1.0740583 33036312
-0.10636868 0.24077496 1.0727468 33036312
-0.10834256 0.24016476 1.0720153 33036312
-0.10973313 0.24018767 1.0707054 33036312
-0.11170267 0.23957741 1.0699782 33036312
-0.16099088 0.2429601 1.0190232 16777216
-0.10443647 0.24057117 1.0789447 33036312
-0.10662691 0.24125171 1.0757532 33036312
-0.10998634 0.24066272 1.073715 33036312
-0.11137415 0.24068549 1.0724077 33036312
-0.11611243 0.24011916 1.0690706 33036312
-0.1180727 0.23950687 1.068351 33036312
-0.11945735 0.23952979 1.0670464 33036312
-0.12084173 0.23955259 1.0657415 33036312
-0.1222267 0.2395753 1.0644372 33036312
-0.12361132 0.23959813 1.0631325 33036312
-0.12499596 0.23962092 1.0618277 33036312
-0.1269462 0.23900864 1.0611176 33036312
-0.12889366 0.23839617 1.06041 33036312
-0.13165717 0.23844182 1.057806 33036312
-0.13247888 0.23909974 1.0559046 33036312
-0.13386194 0.2391226 1.0546012 33036312
-0.13939489 0.23921373 1.0493882 33036312
-0.14077787 0.2392365 1.0480847 33036312
-0.14216121 0.23925921 1.0467815 33036312
-0.1463107 0.23932764 1.0428717 33036312
-0.14769407 0.23935038 1.0415683 33036312
-0.14907728 0.2393733 1.0402651 33036312
-0.14991899 0.24003157 1.0383444 33036312
-0.15130378 0.2400544 1.0370398 33036312
-0.1535363 0.24073553 1.0338089 33036312
-0.10529338 0.24040246 1.0825081 33036312
-0.10667665 0.24042538 1.0812049 33036312
-0.10805993 0.24044806 1.0799017 33036312
-0.10944305 0.24047086 1.0785983 33036312
-0.1108264 0.24049371 1.0772951 33036312
-0.11220947 0.24051648 1.0759919 33036312
-0.11359257 0.24053928 1.0746884 33036312
-0.11555405 0.23992521 1.073967 33036312
-0.11751254 0.23931116 1.0732481 33036312
-0.11889289 0.23933387 1.0719473 33036312
-0.12084685 0.23871976 1.0712326 33036312
-0.12165321 0.23937935 1.0693462 33036312
-0.12303339 0.23940215 1.0680456 33036312
-0.12441383 0.23942488 1.0667453 33036312
-0.12579422 0.23944759 1.0654445 33036312
-0.12717469 0.23947042 1.0641439 33036312
-0.12855481 0.23949301 1.0628436 33036312
-0.12993507 0.23951581 1.061543 33036312
-0.13131545 0.23953864 1.0602424 33036312
-0.13269554 0.23956135 1.0589418 33036312
-0.13407613 0.239584 1.0576413 33036312
-0.13545628 0.23960677 1.0563407 33036312
-0.13739316 0.23899239 1.0556421 33036312
-0.13877209 0.23901519 1.054343 33036312
-0.14015095 0.23903781 1.0530438 33036312
-0.14290838 0.23908335 1.0504453 33036312
-0.14373814 0.23974323 1.0485375 33036312
-0.14787884 0.23981151 1.0446358 33036312
-0.14871542 0.24047157 1.0427208 33036312
-0.15009727 0.24049437 1.041419 33036312
-0.15147917 0.24051708 1.040117 33036312
-0.15286095 0.24053991 1.0388153 33036312
-0.15424259 0.24056262 1.037513 33036312
-0.10950041 0.23962992 1.0840347 33036312
-0.11087772 0.23965254 1.0827367 33036312
-0.11225522 0.23967528 1.0814388 33036312
-0.11363272 0.23969793 1.0801411 33036312
-0.11442922 0.24035931 1.0782647 33036312
-0.11580814 0.24038184 1.0769656 33036312
-0.11776479 0.23976615 1.0762477 33036312
-0.11971848 0.23915011 1.0755322 33036312
-0.12109439 0.23917276 1.0742354 33036312
-0.12247013 0.23919547 1.0729392 33036312
-0.12327434 0.2398569 1.0710564 33036312
-0.1246516 0.23987946 1.0697582 33036312
-0.1260293 0.23990214 1.0684607 33036312
-0.12740664 0.23992491 1.0671628 33036312
-0.12878393 0.23994759 1.0658648 33036312
-0.13072626 0.23933145 1.0651603 33036312
-0.13210236 0.23935419 1.063864 33036312
-0.13347785 0.23937684 1.0625672 33036312
-0.13485412 0.23939955 1.061271 33036312
-0.13678892 0.23878318 1.0605731 33036312
-0.13760601 0.23944485 1.0586782 33036312
-0.13953774 0.23882854 1.0579829 33036312
-0.14091249 0.23885116 1.0566878 33036312
-0.142287 0.23887378 1.0553927 33036312
-0.14366172 0.23889634 1.0540977 33036312
-0.1472377 0.23960352 1.0496027 33036312
-0.14861359 0.23962614 1.0483065 33036312
-0.14998959 0.23964894 1.0470097 33036312
-0.15082254 0.24031067 1.0450995 33036312
-0.15219988 0.24033332 1.0438018 33036312
-0.15357725 0.24035612 1.0425038 33036312
-0.15495478 0.24037874 1.0412059 33036312
-0.15579478 0.24104086 1.039289 33036312
-0.15824519 0.23978487 1.0392306 33036312
-0.15908678 0.24044687 1.0373125 33036312
-0.16099726 0.23983005 1.036638 33036312
-0.16184174 0.24049217 1.0347171 33036312
-0.16321908 0.24051487 1.0334191 33036312
-0.11310717 0.23948273 1.0849936 33036312
-0.11448036 0.23950541 1.0836999 33036312
-0.11585329 0.23952794 1.0824063 33036312
-0.11722653 0.23955065 1.0811124 33036312
-0.11859934 0.23957315 1.0798187 33036312
-0.11997257 0.2395958 1.0785248 33036312
-0.12134562 0.23961842 1.0772312 33036312
-0.12271892 0.23964104 1.0759375 33036312
-0.12409188 0.23966366 1.0746436 33036312
-0.1248935 0.24032688 1.0727639 33036312
-0.12626781 0.2403495 1.0714688 33036312
-0.12764238 0.24037221 1.0701737 33036312
-0.129584 0.23975426 1.0694687 33036312
-0.13095699 0.23977685 1.0681748 33036312
-0.13233022 0.23979941 1.0668809 33036312
-0.13370322 0.23982203 1.0655873 33036312
-0.13563775 0.23920402 1.064889 33036312
-0.13700925 0.23922655 1.063597 33036312
-0.13838093 0.23924914 1.0623043 33036312
-0.14030953 0.23863095 1.0616114 33036312
-0.14223535 0.23801276 1.0609214 33036312
-0.14360406 0.23803526 1.0596316 33036312
-0.14497282 0.23805779 1.058342 33036312
-0.14634167 0.23808032 1.0570524 33036312
-0.14716037 0.23874381 1.0551562 33036312
-0.15072559 0.2394526 1.0506728 33036312
-0.15155332 0.24011606 1.0487688 33036312
-0.15292622 0.24013868 1.0474749 33036312
-0.15429948 0.24016142 1.0461812 33036312
-0.15513285 0.24082506 1.0442717 33036312
-0.1194398 0.23936963 1.0833783 33036312
-0.12138663 0.23874992 1.0826669 33036312
-0.12217723 0.2394146 1.0807989 33036312
-0.12354608 0.23943722 1.0795093 33036312
-0.12548874 0.2388173 1.0788023 33036312
-0.12685613 0.23883986 1.0775142 33036312
-0.12765221 0.23950487 1.0756402 33036312
-0.12902103 0.2395274 1.0743508 33036312
-0.1298217 0.24019238 1.0724728 33036312
-0.13175867 0.23957241 1.0717714 33036312
-0.1331272 0.23959503 1.0704818 33036312
-0.13449578 0.23961756 1.0691917 33036312
-0.13642709 0.23899767 1.0684958 33036312
-0.13779436 0.23902017 1.0672073 33036312
-0.1391616 0.23904267 1.0659192 33036312
-0.14245282 0.2384451 1.0639417 33036312
-0.1443737 0.23782492 1.0632548 33036312
-0.14518462 0.2384901 1.0613678 33036312
-0.14710234 0.23786986 1.0606837 33036312
-0.14846699 0.23789239 1.0593979 33036312
-0.14928184 0.23855758 1.0575068 33036312
-0.1506478 0.23858008 1.0562201 33036312
-0.15201382 0.23860255 1.0549328 33036312
-0.15556924 0.23931298 1.0504596 33036312
-0.15639584 0.23997843 1.0485573 33036312
-0.15722536 0.24064377 1.0466523 33036312
-0.15913348 0.24002349 1.0459781 33036312
-0.12222947 0.23853341 1.0862174 33036312
-0.12417014 0.2379117 1.0855112 33036312
-0.12495537 0.2385782 1.0836489 33036312
-0.12689321 0.23795655 1.0829453 33036312
-0.12825458 0.23797897 1.0816629 33036312
-0.12904428 0.23864564 1.0797963 33036312
-0.13040738 0.23866802 1.0785122 33036312
-0.13177006 0.23869047 1.0772276 33036312
-0.13529448 0.23940229 1.0727849 33036312
-0.13722186 0.23878044 1.0720911 33036312
-0.13858517 0.23880273 1.0708067 33036312
-0.13994788 0.23882532 1.0695226 33036312
-0.14186971 0.23820341 1.0688336 33036312
-0.14323168 0.23822585 1.0675514 33036312
-0.14514916 0.23760375 1.0668666 33036312
-0.14650916 0.23762608 1.0655851 33036312
-0.14786921 0.23764855 1.0643036 33036312
-0.14922898 0.23767084 1.0630221 33036312
-0.15058945 0.23769331 1.0617404 33036312
-0.15412341 0.23840517 1.0572884 33036312
-0.15494065 0.23907232 1.0553961 33036312
-0.15630336 0.23909485 1.0541117 33036312
-0.15712501 0.23976186 1.0522156 33036312
-0.15848927 0.23978442 1.0509298 33036312
-0.15931509 0.24045157 1.0490296 33036312
-0.16121809 0.23982921 1.0483587 33036312
-0.12715377 0.23837319 1.085916 33036312
-0.12908657 0.23774967 1.0852158 33036312
-0.13044386 0.23777196 1.0839369 33036312
-0.13122968 0.23844039 1.0820754 33036312
-0.13201816 0.23910877 1.0802109 33036312
-0.133947 0.23848504 1.0795147 33036312
-0.13473834 0.23915368 1.0776477 33036312
-0.13666417 0.23852992 1.0769548 33036312
-0.13802274 0.23855221 1.0756748 33036312
-0.13938133 0.23857471 1.0743942 33036312
-0.14073999 0.23859704 1.0731142 33036312
-0.14265846 0.23797321 1.072428 33036312
-0.14401577 0.23799562 1.0711491 33036312
-0.14537309 0.23801786 1.0698705 33036312
-0.14728577 0.23739401 1.0691895 33036312
-0.14864169 0.2374163 1.0679119 33036312
-0.14944454 0.238085 1.0660336 33036312
-0.1508017 0.23810735 1.0647552 33036312
-0.15270863 0.23748332 1.0640798 33036312
-0.15296789 0.23879844 1.0615931 33036312
-0.15840216 0.23888808 1.0564725 33036312
-0.15976106 0.23891029 1.0551922 33036312
-0.16111939 0.23893282 1.0539119 33036312
-0.16140197 0.24024823 1.0514038 33036312
-0.16330038 0.23962414 1.0507362 33036312
-0.13320242 0.23690605 1.0867891 33036312
-0.13398294 0.23757619 1.0849333 33036312
-0.13804139 0.23764306 1.081109 33036312
-0.13939436 0.2376653 1.0798345 33036312
-0.14131095 0.23703974 1.079149 33036312
-0.14210002 0.23770985 1.0772851 33036312
-0.14345296 0.23773217 1.0760105 33036312
-0.14480577 0.2377544 1.0747356 33036312
-0.14615874 0.23777658 1.0734611 33036312
-0.14695512 0.23844725 1.0715902 33036312
-0.14886419 0.23782137 1.0709114 33036312
-0.15077089 0.23719543 1.0702355 33036312
-0.15157007 0.23786587 1.068362 33036312
-0.15292291 0.23788819 1.0670874 33036312
-0.15482502 0.23726231 1.0664153 33036312
-0.15562861 0.2379328 1.064538 33036312
-0.15698145 0.23795518 1.0632634 33036312
-0.15887927 0.23732901 1.0625951 33036312
-0.16023062 0.23735136 1.061322 33036312
-0.16104017 0.23802191 1.0594389 33036312
-0.16239278 0.2380442 1.0581646 33036312
-0.16320659 0.23871496 1.0562775 33036312
-0.16402341 0.23938572 1.0543876 33036312
-0.16591518 0.23875958 1.0537252 33036312
-0.16726954 0.23878193 1.052449 33036312
-0.16862391 0.23880413 1.0511732 33036312
-0.1705101 0.23817796 1.0505161 33036312
-0.13942657 0.23674169 1.0852482 33036312
-0.14077337 0.23676389 1.0839787 33036312
-0.14212056 0.2367861 1.0827096 33036312
-0.14346738 0.23680827 1.08144 33036312
-0.14481448 0.2368305 1.0801709 33036312
-0.1456015 0.2375026 1.0783105 33036312
-0.14694999 0.23752463 1.07704 33036312
-0.1482984 0.23754695 1.0757692 33036312
-0.14964692 0.23756918 1.0744987 33036312
-0.15099536 0.23759151 1.0732281 33036312
-0.15289716 0.23696366 1.0725555 33036312
-0.15369271 0.23763585 1.0706866 33036312
-0.15504114 0.23765802 1.069416 33036312
-0.15638952 0.23768038 1.0681455 33036312
-0.15773807 0.2377024 1.0668747 33036312
-0.15908672 0.23772466 1.0656042 33036312
-0.16152401 0.23644662 1.065546 33036312
-0.16286974 0.23646879 1.0642781 33036312
-0.16367374 0.23714119 1.0624013 33036312
-0.16502066 0.23716336 1.0611322 33036312
-0.1658292 0.23783594 1.0592511 33036312
-0.16987495 0.23790234 1.0554392 33036312
-0.1712233 0.23792455 1.0541685 33036312
-0.17310332 0.23729658 1.0535166 33036312
-0.17445032 0.23731875 1.052247 33036312
-0.14371435 0.23719537 1.0844071 33036312
-0.14505856 0.23721749 1.0831406 33036312
-0.14640261 0.23723969 1.0818741 33036312
-0.14774685 0.23726183 1.0806074 33036312
-0.14909093 0.23728392 1.0793407 33036312
-0.15043537 0.23730618 1.0780742 33036312
-0.15502058 0.23672077 1.0748723 33036312
-0.15581201 0.23739472 1.0730081 33036312
-0.15715633 0.23741677 1.0717416 33036312
-0.15850054 0.23743895 1.0704751 33036312
-0.15984471 0.23746121 1.0692084 33036312
-0.16118889 0.23748335 1.0679417 33036312
-0.1630771 0.23685348 1.0672812 33036312
-0.16441973 0.23687562 1.066016 33036312
-0.16576259 0.23689771 1.0647504 33036312
-0.16710521 0.23691982 1.0634854 33036312
-0.16790985 0.23759401 1.061609 33036312
-0.16925411 0.23761615 1.0603426 33036312
-0.17059828 0.23763829 1.0590761 33036312
-0.17247622 0.23700833 1.0584247 33036312
-0.17381911 0.23703045 1.0571594 33036312
-0.17516176 0.23705271 1.0558941 33036312
-0.17703407 0.23642254 1.0552485 33036312
-0.17918999 0.23711884 1.0520988 33036312
-0.14854936 0.23698813 1.0841632 33036312
-0.14933012 0.23766372 1.0823107 33036312
-0.15122931 0.23703218 1.0816383 33036312
-0.15256916 0.23705429 1.0803759 33036312
-0.15335424 0.23773003 1.0785191 33036312
-0.15469544 0.23775208 1.0772552 33036312
-0.15658866 0.23712048 1.0765884 33036312
-0.15737794 0.23779631 1.0747278 33036312
-0.15926854 0.23716462 1.0740638 33036312
-0.16060792 0.23718682 1.0728011 33036312
-0.1624945 0.23655498 1.0721412 33036312
-0.16383301 0.23657706 1.0708802 33036312
-0.1657149 0.23594546 1.0702243 33036312
-0.16705172 0.23596743 1.0689642 33036312
-0.17052512 0.2366873 1.0645745 33036312
-0.17266701 0.23738542 1.0614393 33036312
-0.17454039 0.23675349 1.0607913 33036312
-0.17587857 0.23677564 1.0595298 33036312
-0.1777475 0.23614362 1.0588863 33036312
-0.17908446 0.23616561 1.0576267 33036312
-0.17989402 0.23684177 1.0557468 33036312
-0.18123262 0.23686376 1.0544858 33036312
-0.15147017 0.23740283 1.0846014 33036312
-0.15280728 0.23742485 1.0833418 33036312
-0.15470009 0.23679143 1.082674 33036312
-0.15603565 0.2368134 1.0814157 33036312
-0.15681817 0.23749095 1.0795622 33036312
-0.15870659 0.23685747 1.0788989 33036312
-0.16192631 0.23624599 1.0769813 33036312
-0.16326039 0.23626792 1.0757244 33036312
-0.16514029 0.2356343 1.0750692 33036312
-0.16592862 0.23631191 1.0732102 33036312
-0.16780569 0.23567817 1.0725579 33036312
-0.16913809 0.23570019 1.0713022 33036312
-0.17047085 0.23572218 1.0700464 33036312
-0.17126499 0.23639983 1.0681822 33036312
-0.17259924 0.23642182 1.0669253 33036312
-0.17339729 0.23709938 1.0650568 33036312
-0.17526717 0.23646581 1.0644112 33036312
-0.17660137 0.23648778 1.0631542 33036312
-0.17846684 0.23585385 1.0625126 33036312
-0.17979942 0.23587584 1.0612569 33036312
-0.18113209 0.23589784 1.0600011 33036312
-0.15871312 0.23588216 1.0843079 33036312
-0.1600429 0.23590422 1.083055 33036312
-0.16082154 0.23658344 1.0812061 33036312
-0.16215281 0.23660532 1.0799518 33036312
-0.16348396 0.23662728 1.0786977 33036312
-0.16536181 0.23599172 1.0780432 33036312
-0.16669188 0.23601362 1.0767901 33036312
-0.16747756 0.23669317 1.0749347 33036312
-0.16935106 0.23605749 1.0742846 33036312
-0.17068093 0.23607939 1.0730314 33036312
-0.17147098 0.23675889 1.0711718 33036312
-0.17334037 0.23612326 1.0705256 33036312
-0.17466997 0.23614523 1.0692725 33036312
-0.17546473 0.23682475 1.0674088 33036312
-0.17679591 0.2368466 1.0661547 33036312
-0.17812721 0.23686859 1.0649004 33036312
-0.17998923 0.23623273 1.064261 33036312
-0.18184839 0.23559701 1.0636241 33036312
-0.18317668 0.23561883 1.0623724 33036312
-0.16613482 0.23568276 1.0816078 33036312
-0.16746019 0.23570457 1.0803587 33036312
-0.1687855 0.23572648 1.0791099 33036312
-0.17354862 0.23647317 1.0735085 33036312
-0.17487521 0.23649511 1.0722578 33036312
-0.17673828 0.23585755 1.0716169 33036312
-0.17752899 0.2365388 1.0697577 33036312
-0.17885594 0.2365607 1.0685074 33036312
-0.18018265 0.23658264 1.0672569 33036312
-0.18204002 0.23594493 1.0666213 33036312
-0.18336527 0.23596665 1.0653722 33036312
-0.17165492 0.23611113 1.0795796 33036312
-0.1729777 0.23613292 1.0783336 33036312
-0.1748402 0.23549348 1.077692 33036312
-0.17748211 0.23553711 1.0752022 33036312
-0.17933904 0.23489758 1.0745659 33036312
-0.18012433 0.23558065 1.0727124 33036312
-0.18091251 0.23626378 1.0708568 33036312
-0.18223532 0.23628539 1.0696108 33036312
-0.18408741 0.23564598 1.0689781 33036312
-0.1854087 0.23566777 1.0677335 33036312
-0.18008529 0.23456439 1.0781417 33036312
-0.18193562 0.23392311 1.0775101 33036312
-0.18271579 0.23460788 1.0756631 33036312
-0.18349914 0.23529261 1.0738134 33036312
-0.18481575 0.23531428 1.0725727 33036312
-0.18666165 0.23467284 1.071945 33036312
-0.076892897 -0.13005218 0.85808921 27206467
-0.074903488 -0.12986755 0.85849792 27206467
-0.07476218 -0.1279301 0.85578609 27206467
-0.071932957 -0.12568778 0.85275346 27206467
-0.069954336 -0.12550758 0.85315329 27206467
-0.070501849 -0.12372173 0.8511821 27206467
-0.068526164 -0.12354342 0.85157949 27206467
-0.065161988 -0.12310528 0.85050851 27206467
-0.070468351 -0.12201981 0.8510716 27206467
-0.067098215 -0.12158736 0.8500064 27206467
-0.063736826 -0.12115521 0.84893316 27206467
-0.070434526 -0.12031791 0.85096091 27206467
-0.068458945 -0.12014379 0.85135859 27206467
-0.064399049 -0.11959129 0.84955591 27206467
-0.07109946 -0.11874031 0.85158008 27206467
-0.068425268 -0.11844388 0.8512482 27206467
-0.06506145 -0.1180235 0.8501783 27206467
-0.069786057 -0.11698843 0.85259968 27206467
-0.065723598 -0.11645169 0.85080051 27206467
