# .PCD v0.7 - Point Cloud Data file format
VERSION 0.7
FIELDS x y z rgba
SIZE 4 4 4 4
TYPE F F F U
COUNT 1 1 1 1
WIDTH 1091
HEIGHT 1
VIEWPOINT 0 0 0 1 0 0 0
POINTS 1091
DATA ascii
-0.09010154 0.018103719 0.98275357 32971579
-0.050632045 0.017035864 0.95489925 18980221
-0.047381058 0.016995192 0.95376736 22478398
-0.049097911 0.017202139 0.95892245 18980221
-0.052654937 0.01750274 0.96645516 21894742
-0.058038667 0.017897628 0.97637731 21894742
-0.05231306 0.017732754 0.97209412 21894742
-0.041082919 0.017286293 0.96066338 22478398
-0.036024496 0.017150708 0.95712489 29409472
-0.035260335 0.017233774 0.9591338 22478398
-0.034493357 0.01731693 0.96114534 22478398
-0.03189975 0.017305858 0.96076745 29409472
-0.032950163 0.017483555 0.9651764 28891352
-0.03640902 0.017787881 0.97279567 28891352
-0.094258934 0.017296605 0.91755682 31223020
-0.094205111 0.01741118 0.92027205 31223020
-0.090696365 0.020075455 0.98340267 30121791
-0.088606402 0.020097837 0.98391372 30121791
-0.083806753 0.0201094 0.98415023 28437965
-0.081099764 0.020098671 0.98387235 28437965
-0.074019015 0.019858479 0.97811872 26105494
-0.049208775 0.018934287 0.95600408 32842113
-0.045198306 0.018972516 0.95687741 32842113
-0.051216245 0.019421548 0.96757168 21894742
-0.052891165 0.019639902 0.972763 21894742
-0.041660234 0.019161858 0.9613356 29409472
-0.037825465 0.019080952 0.95938581 29409472
-0.034457073 0.019151323 0.96102613 29409472
-0.032471061 0.019169718 0.96144587 29409472
-0.033520117 0.019355401 0.96585542 28891352
-0.036977187 0.019675612 0.97347528 28891352
-0.093501166 0.019230284 0.91940707 31223020
-0.091924101 0.022085704 0.98482579 32971579
-0.083768561 0.022042841 0.98402447 28437965
-0.075232565 0.021839522 0.97955722 26105494
-0.052278221 0.02095513 0.95981044 18980221
-0.048405081 0.020867735 0.95789534 32842113
-0.044543728 0.020779908 0.95596963 32842113
-0.051623389 0.021445766 0.97105986 21894742
-0.042851448 0.02107653 0.96279949 29409472
-0.037788957 0.020917393 0.95926636 29409472
-0.036409691 0.020969249 0.96048468 29409472
-0.034420758 0.02098579 0.96090692 29409472
-0.032434955 0.021002166 0.96132666 29409472
-0.033483788 0.021195747 0.96573597 28891352
-0.037545443 0.021567293 0.97415429 25976028
-0.093464538 0.021080494 0.91928715 31223020
-0.093785018 0.024140194 0.98702329 28437965
-0.086442694 0.023994729 0.98417085 28437965
-0.048988432 0.022752918 0.9585616 32842113
-0.04450731 0.022620223 0.95585018 32842113
-0.045591772 0.022820391 0.96022731 29409472
-0.050356001 0.023243539 0.96935743 21894742
-0.044042483 0.022999063 0.9642629 32842113
-0.038977295 0.022828214 0.96073312 29409472
-0.038113624 0.023462959 0.97483319 25976028
-0.068458423 0.025935769 1.0280595 29085551
-0.093427792 0.022930831 0.91916674 31223020
-0.094701067 0.023131736 0.92337686 25457908
-0.086404428 0.025932014 0.98404497 28437965
-0.050190851 0.024681009 0.96001405 32842113
-0.046171501 0.02470769 0.96089619 32842113
-0.044005677 0.024851352 0.96414238 32842113
-0.03955318 0.024707779 0.96140653 32842113
-0.069616988 0.027994059 1.0295405 29085551
-0.092724219 0.024741963 0.91830248 25457908
-0.093332827 0.024911627 0.92176479 25457908
-0.08825618 0.02799084 0.9862501 28437965
-0.076995626 0.027708203 0.98152691 26105494
-0.07430394 0.027681082 0.98123676 26105494
-0.068505242 0.027449809 0.97702366 27271200
-0.050773785 0.026576087 0.96068007 32842113
-0.044434145 0.026301034 0.95561081 32842113
-0.043051809 0.026352972 0.95683175 32842113
-0.047206029 0.026774444 0.96516389 32842113
-0.043355241 0.026662543 0.96323055 32842113
-0.040128991 0.026591249 0.9620797 32842113
-0.036911473 0.026519708 0.96092063 26494148
-0.034921184 0.026530311 0.96134478 26494148
-0.033980951 0.026758261 0.96617514 26494148
-0.069266617 0.029796019 1.0256867 29085551
-0.092687726 0.026590236 0.91818231 25457908
-0.09263061 0.026724704 0.92089909 25457908
-0.084243998 0.029818863 0.98430008 28437965
-0.07820873 0.029715024 0.98296338 27271200
-0.076138273 0.029726669 0.98345858 27271200
-0.070335269 0.029481761 0.97925025 26105494
-0.044397891 0.028141372 0.95549124 32842113
-0.043015376 0.028193392 0.95671219 32842113
-0.045323849 0.028503515 0.96267325 32842113
-0.042091578 0.028426617 0.96152765 32842113
-0.039480254 0.028392456 0.96116704 32842113
-0.035493925 0.028410025 0.9620207 26494148
-0.035156816 0.028687365 0.96765107 26494148
-0.070427999 0.031860135 1.0271642 29085551
-0.09331812 0.028481536 0.91880625 25457908
-0.092593879 0.02857697 0.92077881 25457908
-0.092530981 0.028715521 0.92350072 25457908
-0.080870897 0.031675175 0.98312014 28437965
-0.078796178 0.031685106 0.98361903 27271200
-0.07610029 0.031650178 0.98333365 27271200
-0.072164908 0.031525597 0.98147613 26105494
-0.065757751 0.031221375 0.97646958 26105494
-0.045597807 0.030071534 0.95694631 26494148
-0.042211473 0.030130707 0.9586032 32842113
-0.040827632 0.030182742 0.95982522 32842113
-0.038831443 0.030189686 0.96025497 32842113
-0.070988834 0.033886574 1.0278385 29085551
-0.098071426 0.030362085 0.91845483 25457908
-0.093948767 0.030376844 0.91942984 25457908
-0.092557386 0.030429199 0.92065853 25457908
-0.09249413 0.030571736 0.92338008 25457908
-0.079383537 0.033659168 0.98427445 28437965
-0.076685965 0.03362029 0.98399049 27271200
-0.072749734 0.033487834 0.98213488 26105494
-0.070067242 0.033448502 0.98183793 26105494
-0.044175759 0.031967975 0.95804983 26494148
-0.043405429 0.032067083 0.96006304 26494148
-0.040791258 0.032025069 0.95970565 32842113
-0.038795233 0.032030068 0.9601354 32842113
-0.035255522 0.03223329 0.96459395 26494148
-0.070032448 0.035623461 1.0231881 29085551
-0.094578966 0.032276116 0.92005318 25457908
-0.092520818 0.032281414 0.92053813 25457908
-0.091793224 0.032380886 0.92251307 25457908
-0.093050838 0.032621942 0.92673355 25457908
-0.095244586 0.036144257 0.99143273 21441355
-0.089992076 0.035909176 0.9880746 31870606
-0.076648086 0.035545737 0.98386544 27271200
-0.073334262 0.035454161 0.98279327 27271200
-0.073755473 0.035654522 0.98641986 27271200
-0.045988664 0.033959031 0.96029502 23061251
-0.044598833 0.034011297 0.9615224 23061251
-0.07119678 0.0376973 1.0246627 29085551
-0.09860912 0.034273736 0.92167145 25457908
-0.095876545 0.034228362 0.92141956 25457908
-0.093815193 0.034231767 0.92190737 25457908
-0.091756582 0.034235045 0.92239243 25457908
-0.091688797 0.03438583 0.92511731 25457908
-0.095205739 0.038105264 0.99130541 21441355
-0.089953676 0.037858382 0.987948 31870606
-0.085976094 0.037711643 0.9861303 31870606
-0.082637161 0.037614956 0.9850809 31870606
-0.080557853 0.037619077 0.98558432 31870606
-0.077233896 0.037521847 0.98452204 27271200
-0.07391876 0.037424318 0.98345155 27271200
-0.07495898 0.037681445 0.98786336 27271200
-0.069173649 0.037380457 0.98364383 27271200
-0.03656669 0.035865918 0.96313244 33424966
-0.066613078 0.039106436 1.0152214 31352486
-0.071759135 0.039727703 1.0253356 17943981
-0.095109284 0.036190048 0.92327625 25457908
-0.093047962 0.036191463 0.92376405 25457908
-0.091652229 0.036244005 0.92499655 25457908
-0.095166877 0.040066421 0.99117774 21441355
-0.089915022 0.039807551 0.9878214 31870606
-0.086565837 0.039705396 0.98678154 29733137
-0.083225459 0.039602861 0.98573393 27271200
-0.081145018 0.039605051 0.98623866 27271200
-0.078443587 0.039554454 0.98595971 27271200
-0.07512562 0.0394511 0.98489231 27271200
-0.07616277 0.039716221 0.98930627 27271200
-0.07347171 0.039665356 0.98901778 17490594
-0.057011262 0.038611233 0.97423977 17490594
-0.051290095 0.038294047 0.96996492 23061251
-0.037303641 0.037603155 0.96099728 33424966
-0.065971568 0.041012123 1.0142944 31352486
-0.071720079 0.041708507 1.0252068 17943981
-0.093675435 0.038102739 0.92438918 25457908
-0.091615468 0.038102083 0.92487615 25457908
-0.092202604 0.038314126 0.9283542 28956085
-0.093865663 0.041918859 0.98950106 31870606
-0.085899234 0.041594282 0.98587793 29733137
-0.083187327 0.041540153 0.98560816 27271200
-0.080481604 0.041485809 0.98533314 27271200
-0.078405082 0.041485891 0.98583418 27271200
-0.076331943 0.041485809 0.9863326 27271200
-0.078607842 0.041868404 0.99231642 27271200
-0.059439778 0.040716544 0.97726911 17490594
-0.052483022 0.04027582 0.97142214 27271200
-0.065932751 0.042969272 1.0141671 31352486
-0.071681023 0.043689407 1.0250781 17943981
-0.093638361 0.039962895 0.92426854 18656300
-0.090916216 0.039905258 0.92400819 18656300
-0.090182871 0.040012822 0.92598778 18656300
-0.092743799 0.040396594 0.93171865 28956085
-0.095944867 0.040836245 0.93821675 28956085
-0.088578448 0.043593362 0.98601598 29733137
-0.080443174 0.043419212 0.98520738 27271200
-0.078990966 0.043473795 0.98648983 27271200
-0.076916382 0.043471798 0.9869898 27271200
-0.078569412 0.043809727 0.9921903 27271200
-0.075253099 0.043694384 0.99112242 27271200
-0.060018465 0.04266715 0.97793359 17490594
-0.05121614 0.042038091 0.96972185 27271200
-0.03811051 0.041730843 0.96797377 33424966
-0.065893933 0.04492636 1.01404 32647914
-0.071040288 0.045612864 1.0241487 17943981
-0.094265535 0.041880079 0.9248932 18656300
-0.091541782 0.041818552 0.92463428 18656300
-0.090146199 0.041870981 0.92586714 18656300
-0.090728521 0.042095043 0.92934841 28956085
-0.095249519 0.042662881 0.93734318 28956085
-0.093788162 0.045833163 0.98924643 29733137
-0.087910444 0.045480259 0.9851138 29733137
-0.080404952 0.045352556 0.98508173 29733137
-0.079576269 0.045465752 0.98714536 29733137
-0.078122482 0.045520417 0.98842901 27271200
-0.078530997 0.045751013 0.99206418 27271200
-0.066347405 0.044979386 0.98284394 17490594
-0.058132008 0.044386536 0.97544748 22218663
-0.050564125 0.043851249 0.96881109 27271200
-0.039895937 0.043760531 0.97024018 27271200
-0.048194692 0.044760168 0.98422259 22543131
-0.065855205 0.046883464 1.0139129 32647914
-0.069798321 0.047473051 1.0224183 17943981
-0.070714355 0.047766507 1.0269368 17943981
-0.096958324 0.043807454 0.92502552 18656300
-0.094892412 0.043801159 0.92551774 18656300
-0.092167616 0.043735683 0.9252606 18656300
-0.090109408 0.043729126 0.9257465 18656300
-0.09003216 0.043900043 0.92847782 28956085
-0.093896493 0.044426329 0.93571955 28956085
-0.088501364 0.047483861 0.98576313 29733137
-0.080991775 0.047346391 0.98573583 29733137
-0.079538107 0.0474011 0.9870196 29733137
-0.078706503 0.047516316 0.98908573 27271200
-0.078492656 0.047692306 0.99193805 27271200
-0.068364993 0.046897672 0.98223668 17490594
-0.056245923 0.046094038 0.97296196 22218663
-0.049912289 0.045660481 0.96790069 27271200
-0.044829652 0.045347825 0.96439868 26105494
-0.04020983 0.045269676 0.96448272 26105494
-0.041074008 0.045740969 0.97171015 27271200
-0.049369186 0.046772331 0.9856934 22543131
-0.067022219 0.048963152 1.0153842 32647914
-0.069157764 0.049386688 1.0214891 17943981
-0.070075497 0.049687959 1.026006 17943981
-0.097586498 0.045734495 0.92564827 18656300
-0.094855681 0.045665316 0.9253965 18656300
-0.092793062 0.045656934 0.92588645 18656300
-0.090733409 0.045648456 0.92637354 18656300
-0.089995205 0.045762137 0.92835683 18656300
-0.093201563 0.046243101 0.93484694 28956085
-0.091817483 0.049560785 0.98666936 29733137
-0.08720389 0.049304552 0.98408586 29733137
-0.080953479 0.049281783 0.98561007 29733137
-0.0794999 0.049336426 0.98689407 29733137
-0.079912364 0.049578786 0.99052411 29733137
-0.078454375 0.049633563 0.99181193 29733137
-0.066469491 0.048623264 0.97975808 17490594
-0.061330095 0.048300944 0.97630662 22218663
-0.056824863 0.048040651 0.97362703 22218663
-0.051104888 0.047654197 0.96935672 27271200
-0.046019018 0.047329798 0.96585828 26105494
-0.051148951 0.048855655 0.98795992 22543131
-0.067586184 0.050987586 1.0160558 32647914
-0.069118693 0.051359609 1.0213609 17943981
-0.098880008 0.047728427 0.92701477 18656300
-0.095482528 0.047592387 0.92602092 18656300
-0.093418628 0.04758206 0.92651206 18656300
-0.091357484 0.047571652 0.9270007 18656300
-0.090617776 0.047687382 0.92898518 18656300
-0.0938223 0.048182346 0.93547541 28956085
-0.087795198 0.051310077 0.98473483 29733137
-0.07946147 0.051271796 0.98676819 29733137
-0.079252049 0.05145552 0.98961598 29733137
-0.076553926 0.051381156 0.9893356 28632164
-0.063954875 0.050272457 0.97649521 28632164
-0.058822051 0.049937949 0.97303933 22218663
-0.056171373 0.049861774 0.97271746 22218663
-0.051682681 0.049591057 0.97002369 27271200
-0.046595231 0.049254812 0.96652752 26105494
-0.042822301 0.049660452 0.97385377 27271200
-0.051717475 0.0508205 0.98863333 30769633
-0.067547679 0.052950568 1.0159285 32647914
-0.067876995 0.053201959 1.0196319 32647914
-0.067597494 0.053388312 1.0225413 17943981
-0.099508435 0.049665309 0.92763716 18656300
-0.094706118 0.049576193 0.92788392 18656300
-0.092642084 0.049563907 0.92837507 32518192
-0.091899604 0.049681745 0.93036216 32518192
-0.094443008 0.050125405 0.93610388 28956085
-0.086497456 0.053120866 0.98305804 29733137
-0.083583966 0.053230509 0.98563093 29733137
-0.080046788 0.053273566 0.98742312 29733137
-0.079835773 0.053461306 0.99027187 29733137
-0.076515749 0.053316474 0.98920983 28632164
-0.066393867 0.052438617 0.97951001 28632164
-0.060637534 0.052025817 0.97527426 22218663
-0.057982475 0.05194591 0.97495621 22218663
-0.052875012 0.051598564 0.97147912 27271200
-0.047785118 0.051250599 0.96798617 26105494
-0.043999776 0.051662654 0.97532231 27271200
-0.05167973 0.052722245 0.98850948 30769633
-0.068111524 0.054980882 1.0165999 17943981
-0.067236558 0.055103682 1.0187035 17943981
-0.10080157 0.051673003 0.92900282 18656300
-0.096735865 0.051458411 0.92726821 18656300
-0.095331222 0.051511228 0.9285087 18656300
-0.093926549 0.051564068 0.92974919 32518192
-0.092521772 0.051616848 0.93098956 32518192
-0.093748167 0.051938266 0.93523139 18656300
-0.085200071 0.05492384 0.98138136 29733137
-0.083746135 0.054978527 0.98266512 28632164
-0.080631942 0.055279359 0.98807746 29733137
-0.079797283 0.055402592 0.99014574 19886995
-0.075856775 0.055183344 0.98830098 28632164
-0.065737173 0.054277658 0.97860152 28632164
-0.057329014 0.053767003 0.97404641 22218663
-0.048361272 0.05318553 0.96865433 27271200
-0.042325571 0.053136885 0.96999091 27271200
-0.044570073 0.053603694 0.9759956 27271200
-0.052247897 0.054693036 0.98918217 27854309
-0.068072647 0.056945898 1.0164723 17943981
-0.067799091 0.05713997 1.019376 17943981
-0.0960356 0.053259537 0.92640191 18656300
-0.094632134 0.053312354 0.92764109 18656300
-0.093889728 0.053434029 0.92962795 32518192
-0.091825753 0.053417861 0.93011934 32518192
-0.092395529 0.053677991 0.93360895 18656300
-0.083902985 0.056718834 0.97970551 28632164
-0.082452044 0.056773424 0.98098654 28632164
-0.080593497 0.057218701 0.98795146 29733137
-0.079136893 0.057273455 0.98923808 29733137
-0.077059612 0.057257757 0.98974138 28632164
-0.051571414 0.055213101 0.96965843 27271200
-0.042897105 0.055069998 0.97066337 27271200
-0.045139879 0.055548787 0.97666878 29603671
-0.095998392 0.05512771 0.92628056 25587374
-0.093191981 0.055233158 0.9287588 25587374
-0.091788799 0.055285886 0.9299981 25587374
-0.091043025 0.055409834 0.93198711 25587374
-0.083041802 0.058777049 0.98163742 28632164
-0.081178725 0.059230372 0.98860556 29733137
-0.078476384 0.059140384 0.98833042 28632164
-0.076400951 0.059122562 0.98883265 28632164
-0.054790199 0.057252079 0.97065407 27271200
-0.05091989 0.057014331 0.96874863 26105494
-0.046317101 0.057570711 0.978136 29603671
-0.095961556 0.056995697 0.92615908 25587374
-0.09389618 0.056975625 0.92665237 32518192
-0.093155012 0.057101257 0.92863744 25587374
-0.091751903 0.057154007 0.92987663 25587374
-0.090348616 0.057206787 0.93111557 25587374
-0.090257406 0.057405867 0.93385714 18656300
-0.082375631 0.060636245 0.9807356 26234960
-0.082804084 0.060913555 0.98434907 26234960
-0.081973717 0.06104254 0.98641306 19886995
-0.080517054 0.061097383 0.98769945 19886995
-0.079682067 0.061226569 0.98976713 19886995
-0.076362342 0.06105791 0.98870689 18786022
-0.050882742 0.058886379 0.96862692 26105494
-0.047024399 0.058640301 0.96671158 27271200
-0.04378958 0.058468468 0.96557623 27271200
-0.047494039 0.059600607 0.97960311 27854309
-0.09592478 0.058863796 0.92603773 25587374
-0.093859211 0.058841728 0.92653102 32518192
-0.093118057 0.058969319 0.92851609 25587374
-0.091714919 0.059022114 0.92975527 25587374
-0.090311602 0.059074849 0.93099445 25587374
-0.089564204 0.059202768 0.93298441 25587374
-0.083159015 0.062436946 0.97855419 28632164
-0.082965523 0.062643789 0.98138624 26234960
-0.083392128 0.062927127 0.98500055 19886995
-0.08256036 0.063058168 0.98706561 19886995
-0.081101909 0.063113056 0.98835319 19886995
-0.080265701 0.063244216 0.99042231 19886995
-0.076324105 0.062993273 0.988581 18786022
-0.046374723 0.060427614 0.9658013 29603671
-0.043752894 0.060326695 0.96545547 29603671
-0.044612303 0.060893022 0.9726792 29603671
-0.047457054 0.061484531 0.97948068 17490594
-0.094560757 0.060578227 0.92442757 25587374
-0.093160272 0.060630977 0.92566389 18656300
-0.093081012 0.060837515 0.9283945 25587374
-0.091677979 0.060890153 0.9296338 25587374
-0.090931907 0.061019987 0.93162268 25587374
-0.08952722 0.061072752 0.93286318 25587374
-0.081862167 0.064210191 0.97687978 28632164
-0.082926944 0.064577185 0.98126048 26234960
-0.082727358 0.064788237 0.9840973 26234960
-0.081896767 0.0649212 0.98616093 19886995
-0.081063598 0.065054268 0.98822731 19886995
-0.079605341 0.065109134 0.98951501 19886995
-0.076906398 0.065007105 0.98923773 18786022
-0.046337858 0.062289782 0.96568018 29603671
-0.045792252 0.062920831 0.97414368 29603671
-0.048026353 0.063447401 0.98015243 17490594
-0.0931236 0.062495016 0.92554289 18656300
-0.093704626 0.062784374 0.92902011 25587374
-0.092958853 0.062916145 0.93100876 25587374
-0.091552585 0.062969029 0.93225056 25587374
-0.090146542 0.063021906 0.93349236 29085551
-0.090703666 0.063312218 0.93699056 29085551
-0.083082736 0.06629581 0.97830349 26234960
-0.083516583 0.066590674 0.98191041 19886995
-0.082689106 0.066725522 0.98397142 19886995
-0.082483679 0.066940799 0.98681337 19886995
-0.081025168 0.066995569 0.98810095 19886995
-0.080810606 0.067211114 0.99095076 18786022
-0.079349205 0.067266025 0.9922412 18786022
-0.048139572 0.06439402 0.96792585 29603671
-0.044901907 0.064204536 0.96679443 29603671
-0.044723094 0.064418763 0.96961278 29603671
-0.046363845 0.064875729 0.97481459 17490594
-0.048596159 0.065414205 0.98082405 17490594
-0.093748555 0.06443993 0.92616731 18656300
-0.093667716 0.06465441 0.92889875 25587374
-0.093580753 0.06486918 0.9316352 25587374
-0.092830464 0.065003112 0.93362755 29085551
-0.09142141 0.065056019 0.93487221 29085551
-0.091975495 0.065352343 0.93837255 30251513
-0.082415238 0.068143144 0.97740394 26234960
-0.083478287 0.068526052 0.98178476 19886995
-0.081610024 0.069019094 0.98875469 19886995
-0.082015768 0.069321007 0.99238616 18786022
-0.049328551 0.066427387 0.96938211 29603671
-0.046087816 0.066232152 0.96825367 17490594
-0.046326593 0.066751719 0.97469276 17490594
-0.047951877 0.067219168 0.97990733 17490594
-0.093711644 0.066306092 0.92604595 25587374
-0.094291091 0.066607304 0.92952365 25587374
-0.094202831 0.066825993 0.93226141 25587374
-0.094108224 0.067044996 0.93500429 29085551
-0.092696086 0.067098044 0.93625134 29085551
-0.093901768 0.067483507 0.94050592 30251513
-0.091830686 0.067453705 0.94100493 30251513
-0.086152256 0.070574798 0.98192376 19886995
-0.085950956 0.070797734 0.98476106 23968025
-0.085117206 0.070936792 0.98682708 23968025
-0.084280953 0.071075954 0.98889548 23968025
-0.083441213 0.07121519 0.99096662 19886995
-0.04849647 0.068436958 0.9712922 29603671
-0.047088712 0.068489939 0.97253531 29603671
-0.046897814 0.068712488 0.97536355 17490594
-0.047307804 0.069020204 0.97899073 17490594
-0.094336465 0.068256959 0.92667001 25587374
-0.095483139 0.068871841 0.93363494 29085551
-0.095385909 0.069094777 0.93638057 29085551
-0.094626606 0.069233038 0.93838054 30251513
-0.095827609 0.069626592 0.94263846 30251513
-0.097030178 0.073748656 0.99210268 23968025
-0.093034551 0.073460162 0.9903124 23968025
-0.089678451 0.073257416 0.9892872 23968025
-0.087583721 0.073226482 0.98980743 23968025
-0.087365687 0.073454067 0.99265915 26817813
-0.086518824 0.073595516 0.99473673 26817813
-0.048685834 0.070850812 0.97761875 17490594
-0.047270536 0.070904084 0.97886854 17490594
-0.094961271 0.070211791 0.9272936 25587374
-0.096197873 0.070611864 0.93151945 29085551
-0.09610495 0.070838638 0.93426055 29085551
-0.096663252 0.071152575 0.937756 29085551
-0.096556842 0.071379818 0.94050902 30251513
-0.090675488 0.075620189 0.99356323 23968025
-0.089595795 0.075995699 0.99850518 18202913
-0.051892847 0.072947703 0.97861964 17490594
-0.1001226 0.073022589 0.935875 29085551
-0.099361658 0.073164836 0.93787605 29085551
-0.09979862 0.073716447 0.94413704 30251513
-0.15369512 0.082938328 1.0281453 22283396
-0.15340699 0.083176382 1.0310576 22283396
-0.15182845 0.083235763 1.0324519 22283396
-0.15089084 0.083384655 1.0346091 30510445
-0.14931048 0.083444066 1.0360043 30510445
-0.1477304 0.083503462 1.0373998 30510445
-0.14551388 0.083473228 1.0380278 30510445
-0.12375672 0.084064119 1.0545816 31093298
-0.049016088 0.074944295 0.98100418 21506088
-0.15550815 0.084735051 1.0237126 18850755
-0.15652315 0.085159212 1.0281334 18850755
-0.1562352 0.085401237 1.0310457 22283396
-0.15594108 0.08564347 1.0339634 22283396
-0.15435649 0.085703112 1.0353627 22283396
-0.15341265 0.08585418 1.0375252 30510445
-0.15182675 0.085913844 1.0389259 30510445
-0.15024082 0.085973464 1.0403266 30510445
-0.14738168 0.085849784 1.0401928 30510445
-0.12467237 0.086010106 1.0522716 17814515
-0.12494938 0.086346492 1.0560138 17814515
-0.12337105 0.086405806 1.0574081 17814515
-0.050192371 0.077019714 0.98246795 21506088
-0.083977804 0.086037524 1.0709279 21959475
-0.083594367 0.08628317 1.0739243 25457908
-0.082621068 0.086435392 1.076113 25457908
-0.080478549 0.086400315 1.0766754 25457908
-0.078921065 0.086458869 1.0780513 25457908
-0.076783255 0.08642365 1.0786099 28956085
-0.074069619 0.086294524 1.0783474 28956085
-0.15573986 0.086583264 1.0206773 18850755
-0.1574118 0.087108262 1.0258462 18850755
-0.15712832 0.087353997 1.0287545 18850755
-0.1574841 0.087693438 1.0324271 22283396
-0.15306364 0.088212401 1.0403173 30510445
-0.15147494 0.088272072 1.0417209 30510445
-0.14861296 0.088144548 1.0415902 30510445
-0.14512216 0.087923147 1.0406857 30510445
-0.094704941 0.082411647 1.0014801 28049311
-0.095086351 0.08275003 1.0051305 28049311
-0.12524934 0.088200077 1.052918 17814515
-0.12552492 0.088542409 1.0566614 31093298
-0.12394477 0.08860188 1.0580566 17814515
-0.11929403 0.088188887 1.0555186 17814515
-0.054010153 0.079238817 0.98425668 21506088
-0.05076158 0.079008251 0.98313826 21506088
-0.082323641 0.087227479 1.0615857 31223020
-0.085491613 0.08804898 1.0694201 21959475
-0.086286157 0.088489369 1.0740347 25457908
-0.085896939 0.088739224 1.0770361 25457908
-0.084917635 0.088893585 1.0792301 25457908
-0.082769409 0.088856839 1.0797977 25457908
-0.080624282 0.088819839 1.0803633 25457908
-0.079062104 0.088878646 1.081743 25457908
-0.076342791 0.088745721 1.081486 28956085
-0.074206397 0.08870849 1.0820436 28956085
-0.071497485 0.088575177 1.0817776 28956085
-0.069368526 0.088537663 1.0823286 28956085
-0.064952716 0.088115901 1.0795829 19109687
-0.063406602 0.088174 1.0809481 19109687
-0.16009758 0.086475208 0.99406725 29733137
-0.15855317 0.086533278 0.99543101 29733137
-0.15569873 0.088672929 1.0205417 18850755
-0.15672199 0.089112706 1.0249534 18850755
-0.15708642 0.089457676 1.0286176 18850755
-0.15679707 0.089707643 1.0315311 22283396
-0.155858 0.089862473 1.0336893 22283396
-0.15555774 0.09011291 1.0366116 30510445
-0.15461104 0.090268061 1.0387766 30510445
-0.15302204 0.090327807 1.0401797 30510445
-0.15207092 0.090483166 1.0423486 30510445
-0.14984392 0.090447269 1.0429866 30510445
-0.14635025 0.090220034 1.0420852 30510445
-0.10140671 0.084856346 1.003372 28049311
-0.095528007 0.084240578 0.99926144 28049311
-0.094665915 0.08439251 1.0013516 28049311
-0.095046833 0.084736846 1.0050013 28049311
-0.1258264 0.09039402 1.0535643 31093298
-0.12610047 0.09074235 1.0573087 17814515
-0.12513448 0.090898268 1.0594907 17814515
-0.11986665 0.090379044 1.0561693 17814515
-0.052756235 0.080947243 0.98254925 21506088
-0.050724193 0.080903992 0.98301512 21506088
-0.076724589 0.088055946 1.0504148 28373232
-0.0816928 0.089184187 1.0606449 31223020
-0.086039528 0.090216294 1.0700946 21959475
-0.08683233 0.090664685 1.0747097 24939532
-0.087613359 0.09111356 1.079335 25457908
-0.086044922 0.091172546 1.0807197 25457908
-0.084476814 0.091231517 1.0821047 25457908
-0.082326964 0.091192819 1.0826743 25457908
-0.080760211 0.091251738 1.0840578 28437965
-0.078036621 0.09111502 1.0838053 28956085
-0.07589595 0.091075905 1.0843668 28956085
-0.073182866 0.090938888 1.0841053 19174420
-0.070475653 0.090801537 1.0838382 19174420
-0.066629484 0.090467997 1.0819192 19109687
-0.064507797 0.090428174 1.0824637 19109687
-0.061250493 0.090192012 1.0813537 19109687
-0.059706166 0.09025009 1.0827177 19109687
-0.055895582 0.089915164 1.0807672 27530388
-0.054357097 0.08997298 1.0821257 27530388
-0.051691487 0.089834146 1.0818222 27530388
-0.16535963 0.088453323 0.99058002 23385172
-0.16648366 0.088897265 0.99490184 23385172
-0.16626389 0.089148551 0.99775308 29733137
-0.16470908 0.089206979 0.99912626 29733137
-0.16249122 0.089168824 0.99975628 29733137
-0.15762977 0.088744044 0.99740595 29733137
-0.15668033 0.091210373 1.024817 18850755
-0.15704475 0.09156128 1.0284808 18850755
-0.15675552 0.091815211 1.0313945 22283396
-0.155816 0.091972061 1.0335524 22283396
-0.15487371 0.092128925 1.0357132 22283396
-0.15392818 0.09228605 1.0378764 25781573
-0.1529801 0.092443168 1.0400426 25781573
-0.15202881 0.092600524 1.0422113 25781573
-0.14916556 0.092465132 1.0420823 30510445
-0.14694323 0.092427179 1.042716 30510445
-0.10199483 0.086947016 1.0040171 28049311
-0.094863176 0.086121432 0.99835688 28049311
-0.094002381 0.086275376 1.0004451 28049311
-0.094384626 0.086625598 1.0040936 28049311
-0.12516634 0.092395321 1.0526452 17814515
-0.12544189 0.092749573 1.0563881 17814515
-0.12386151 0.092808984 1.0577836 17814515
-0.11921121 0.09237624 1.0552466 17814515
-0.052718654 0.082844928 0.98242611 21506088
-0.048866555 0.082503699 0.9805128 21506088
-0.048657492 0.082754612 0.9833551 21506088
-0.079881385 0.090938367 1.058089 23190973
-0.084820881 0.092089422 1.0683424 21959475
-0.086791158 0.092744559 1.0745745 24939532
-0.087571681 0.093201369 1.0791996 25457908
-0.086003706 0.093260273 1.0805845 25457908
-0.084435523 0.093319207 1.081969 25457908
-0.082286105 0.09327855 1.0825391 25457908
-0.080719113 0.093337499 1.0839221 28437965
-0.077995375 0.093196854 1.0836701 28956085
-0.076431856 0.093255602 1.0850511 28956085
-0.073717192 0.093114607 1.0847907 28956085
-0.071582571 0.093073361 1.0853469 19174420
-0.068305805 0.092832036 1.0842545 19109687
-0.066180006 0.092790388 1.0848031 19109687
-0.063487962 0.092648566 1.0845234 19109687
-0.061369345 0.092606768 1.0850654 19109687
-0.058120981 0.092364244 1.0839477 27530388
-0.056011543 0.092321999 1.084482 27530388
-0.053905204 0.09227965 1.0850134 27530388
-0.050677463 0.092036456 1.0838776 27530388
-0.046898261 0.091692418 1.0818999 31028565
-0.16505085 0.089904003 0.98404032 29733137
-0.16552372 0.090256698 0.98760825 29733137
-0.16665672 0.090708166 0.99192184 23385172
-0.16644274 0.090963215 0.99476773 23385172
-0.16755511 0.091415398 0.99909931 23385172
-0.16666181 0.091572508 1.0012169 23385172
-0.16377614 0.091433987 1.0011079 23385172
-0.16023515 0.091196679 1.0002491 23385172
-0.15599097 0.093208872 1.0239248 18397368
-0.15700345 0.093664803 1.0283444 18850755
-0.15671365 0.093922675 1.0312572 18850755
-0.15641816 0.094180815 1.0341754 22283396
-0.15483199 0.094240457 1.0355759 22283396
-0.15324588 0.094300151 1.0369766 25781573
-0.15229888 0.094459206 1.0391412 25781573
-0.15071152 0.094518915 1.0405428 26947535
-0.14848749 0.094479002 1.0411785 26947535
-0.14690159 0.094538681 1.0425789 30510445
-0.14278199 0.094199523 1.0409026 30510445
-0.10195535 0.088941768 1.0038874 28049311
-0.095449701 0.088198379 0.99900419 28049311
-0.093963355 0.088254228 1.0003169 28049311
-0.09496823 0.08871045 1.0047433 28049311
-0.12265106 0.094091929 1.0493796 31093298
-0.12231503 0.094351605 1.0523329 17814515
-0.1213582 0.094511062 1.054507 17814515
-0.050248951 0.08434014 0.97913653 21506088
-0.047009453 0.084091425 0.97801167 21506088
-0.045594379 0.084144607 0.9792611 21506088
-0.078070372 0.092680573 1.0555341 28373232
-0.084779814 0.094157398 1.068208 21959475
-0.086749956 0.094824426 1.0744395 24939532
-0.087530717 0.095289052 1.0790639 25457908
-0.085962549 0.095347971 1.0804489 25457908
-0.084394112 0.095406979 1.0818336 25457908
-0.082826063 0.095465906 1.0832183 28437965
-0.081257686 0.095524892 1.0846033 28437965
-0.078533024 0.095380314 1.0843525 28956085
-0.076390967 0.095337339 1.0849159 28956085
-0.073676243 0.095192462 1.0846558 28956085
-0.06883724 0.095003888 1.0849431 19174420
-0.066710159 0.094960362 1.0854931 19109687
-0.06246464 0.094873004 1.0865855 19109687
-0.059212998 0.094624802 1.0854707 19109687
-0.057100728 0.094580628 1.0860074 27530388
-0.054991469 0.094536461 1.0865419 27530388
-0.051198825 0.094185054 1.0845766 27530388
-0.047978774 0.093935594 1.0834346 27530388
-0.044208869 0.093583323 1.0814497 31028565
-0.040450588 0.093230635 1.0794547 31028565
-0.036148414 0.092774838 1.0766113 31028565
-0.032970026 0.092523836 1.0754325 31028565
-0.16556744 0.091178223 0.97544545 26234960
-0.16741262 0.091736265 0.98045808 29733137
-0.16654877 0.091894314 0.98254877 29733137
-0.16769819 0.092352986 0.98684722 29733137
-0.16749464 0.092611618 0.98968381 29733137
-0.16795395 0.092970811 0.99326283 21635810
-0.1684045 0.093330316 0.99685019 23385172
-0.16884594 0.093690149 1.0004451 23385172
-0.16794978 0.093849309 1.0025651 23385172
-0.16572417 0.093807526 1.0032017 23385172
-0.16284053 0.093664989 1.0030916 23385172
-0.15631519 0.095667087 1.0274506 18397368
-0.15602712 0.095929004 1.0303619 18397368
-0.1557325 0.096190967 1.0332782 33295500
-0.15414803 0.096250609 1.0346775 33295500
-0.1525632 0.096310176 1.0360768 33295500
-0.15161799 0.096471265 1.03824 33295500
-0.15066977 0.096632391 1.0404055 21830009
-0.14908205 0.096691996 1.0418074 26947535
-0.14749433 0.096751712 1.0432091 26947535
-0.14337359 0.096404746 1.0415349 21830009
-0.13673745 0.095650375 1.0367682 30510445
-0.10254295 0.091038376 1.0045319 28049311
-0.09392409 0.090233147 1.0001884 28049311
-0.094305918 0.090595208 1.0038357 28049311
-0.04899554 0.086024709 0.97743088 25004521
-0.045152575 0.085667305 0.9755109 25004521
-0.042532131 0.085514814 0.97516841 25004521
-0.080980793 0.095237225 1.0594375 23190973
-0.084738851 0.096225426 1.0680737 24939532
-0.086708844 0.096904173 1.0743041 24939532
-0.087489381 0.097376734 1.0789282 28437965
-0.085921064 0.097435832 1.080313 28437965
-0.084935904 0.097598277 1.0825117 28437965
-0.082784802 0.097553693 1.0830829 28437965
-0.080636621 0.097508959 1.0836515 28437965
-0.078491569 0.097464159 1.0842173 28437965
-0.076349318 0.097419217 1.0847805 28437965
-0.069368556 0.097179778 1.0856314 28956085
-0.067239776 0.097134367 1.0861831 19757529
-0.065114036 0.097088739 1.0867317 19757529
-0.062423721 0.09693893 1.0864511 19757529
-0.059172586 0.096684761 1.0853372 19757529
-0.057060078 0.096638709 1.0858738 19757529
-0.054950818 0.096592478 1.0864084 19757529
-0.051720217 0.096337549 1.0852759 27530388
-0.048499063 0.096082188 1.0841355 27530388
-0.045845613 0.095931023 1.083822 27530388
-0.042082742 0.095570587 1.081831 31028565
-0.03833212 0.095209733 1.0798297 31028565
-0.034593448 0.09484832 1.0778179 31028565
-0.16451047 0.092487991 0.96824187 26234960
-0.16637902 0.093055077 0.97323269 26234960
-0.16688 0.093418606 0.97677487 26234960
-0.16737197 0.093782462 0.98032504 29733137
-0.16718166 0.094044574 0.98314911 29733137
-0.1676573 0.094409063 0.98671347 29733137
-0.16745345 0.094671629 0.98954993 29733137
-0.16724409 0.094934404 0.99239117 21635810
-0.16769607 0.095299862 0.99597663 23385172
-0.16880484 0.095767997 1.0003102 23385172
-0.16790859 0.095929131 1.00243 26817813
-0.16634636 0.095987923 1.0038095 26817813
-0.16346098 0.095841482 1.003701 26817813
-0.1543337 0.097459286 1.0250423 18397368
-0.15534006 0.097931214 1.0294666 18397368
-0.15569095 0.098300576 1.0331409 33295500
-0.15410613 0.098360077 1.0345402 33295500
-0.15188091 0.098316379 1.0351772 33295500
-0.14999019 0.098642364 1.0395033 21830009
-0.14904021 0.098805472 1.0416701 26947535
-0.14745255 0.098865226 1.043072 26947535
-0.14396523 0.098613992 1.0421672 29409472
-0.13795997 0.097947508 1.0381732 29409472
-0.10187632 0.092931211 1.0036283 28049311
-0.095371559 0.09215612 0.99874705 27530388
-0.093260571 0.092108063 0.99928278 27530388
-0.093644395 0.092475973 1.0029285 27530388
-0.047742382 0.087701455 0.97572559 25004521
-0.043902546 0.087335937 0.97380358 25004521
-0.040679857 0.087074772 0.97266489 25004521
-0.079947382 0.095795169 1.0442433 19692796
-0.081398278 0.096377999 1.049603 19692796
-0.083427206 0.097066365 1.0557799 31223020
-0.084847003 0.097650327 1.0611672 23190973
-0.085661396 0.098129638 1.0657606 24939532
-0.087641314 0.098819897 1.0719812 24939532
-0.087842062 0.099194758 1.0757883 24939532
-0.088033661 0.099570014 1.0796037 28437965
-0.085879833 0.099523477 1.0801775 28437965
-0.08431156 0.099582478 1.081562 28437965
-0.082743376 0.099641398 1.082947 28437965
-0.080595344 0.099594764 1.0835159 28437965
-0.077872112 0.099442199 1.0832644 28437965
-0.075731382 0.099395223 1.0838263 28437965
-0.067199007 0.099206254 1.0860484 19757529
-0.065073177 0.099158712 1.0865972 19757529
-0.062382743 0.099004969 1.0863168 19757529
-0.059131697 0.098744817 1.0852032 19757529
-0.057019457 0.098696716 1.0857401 19757529
-0.054346576 0.098542385 1.085444 19757529
-0.051117912 0.098281339 1.0843105 27530388
-0.048458591 0.098126434 1.0840027 27530388
-0.04524608 0.097864851 1.0828547 27530388
-0.041485474 0.097496361 1.0808632 31028565
-0.038848296 0.097340606 1.0805352 31028565
-0.035662606 0.097078033 1.0793638 24745333
-0.031933233 0.096708402 1.0773447 24745333
-0.027663663 0.096231692 1.0744739 24745333
-0.021759406 0.095433973 1.0690625 29409472
-0.16410033 0.093879111 0.96179706 22802319
-0.16599099 0.09445525 0.96676749 26234960
-0.16650833 0.094824068 0.97029489 26234960
-0.16701685 0.095193312 0.97383004 26234960
-0.16751589 0.095562786 0.97737294 26234960
-0.16800587 0.095932804 0.98092395 21635810
-0.16781442 0.096198812 0.98374945 21635810
-0.16761656 0.096465081 0.98658007 21635810
-0.1674128 0.096731752 0.98941594 21635810
-0.167872 0.097102702 0.99299437 21635810
-0.1676551 0.097369775 0.99584216 23385172
-0.16809784 0.09774144 0.99943501 23385172
-0.1678675 0.098008998 1.0022948 26817813
-0.16564186 0.097963281 1.0029316 26817813
-0.16342001 0.097917378 1.003566 26817813
-0.15465324 0.099929772 1.0285711 18397368
-0.15564893 0.10041014 1.0330038 33295500
-0.14899848 0.10091901 1.041533 21830009
-0.1474108 0.10097871 1.0429347 26947535
-0.14455681 0.10082705 1.042799 29409472
-0.13854997 0.10014692 1.0388072 29409472
-0.12815247 0.098725669 1.0293968 32259260
-0.10183692 0.094925895 1.0034986 28049311
-0.095332325 0.094135001 0.99861842 27530388
-0.092597216 0.093979016 0.9983775 27530388
-0.092981994 0.094352871 1.0020218 27530388
-0.089914814 0.096021451 1.0206661 27724587
-0.048313126 0.08968994 0.97639447 25004521
-0.043259174 0.089103356 0.97288936 25004521
-0.040038005 0.088836089 0.97174996 25004521
-0.039843187 0.08910235 0.97457761 25004521
-0.043254346 0.090009578 0.98218983 25004521
-0.073063836 0.096266791 1.0315626 30121791
-0.079311341 0.097714588 1.0433097 28373232
-0.083736345 0.098842479 1.0526824 31223020
-0.085166082 0.099435993 1.0580599 23190973
-0.087764084 0.10024436 1.0650616 24939532
-0.087980926 0.10062461 1.0688539 24939532
-0.088777766 0.10111237 1.0734625 31870606
-0.088388056 0.10138587 1.0764627 31870606
-0.087992549 0.1016597 1.079468 28437965
-0.084270209 0.10167022 1.0814264 28437965
-0.082121044 0.10162153 1.0819967 28437965
-0.079394758 0.1014652 1.0817482 28437965
-0.076674372 0.10130858 1.0814941 28437965
-0.074536994 0.10125956 1.0820537 28437965
-0.064462915 0.10112058 1.0856373 19757529
-0.06177403 0.10096278 1.0853558 19757529
-0.058524504 0.10069668 1.0842412 19757529
-0.056978568 0.10075475 1.0856063 19757529
-0.053742751 0.10048813 1.08448 19757529
-0.047857687 0.10006227 1.0830362 27530388
-0.044646934 0.099794634 1.0818877 27530388
-0.041445181 0.099526748 1.0807312 31028565
-0.038808182 0.099367037 1.0804038 31028565
-0.03562285 0.099098474 1.0792327 24745333
-0.031893179 0.098720916 1.077214 24745333
-0.028175369 0.098343 1.0751848 24745333
-0.023920104 0.097855791 1.0723028 29409472
-0.020227775 0.097476847 1.0702512 29409472
-0.16352282 0.095519602 0.95815748 17037207
-0.1647429 0.095999412 0.96239156 27400922
-0.16595112 0.096479587 0.966636 27400922
-0.16714738 0.096960336 0.97089082 26234960
-0.16765396 0.09733551 0.97442704 18202913
-0.16747551 0.097605072 0.97724015 18202913
-0.1679657 0.097980849 0.98079103 21635810
-0.16777389 0.098250881 0.98361605 21635810
-0.16690405 0.098415039 0.98571175 21635810
-0.16670178 0.09868554 0.98854619 21635810
-0.16716246 0.099062458 0.99212271 21635810
-0.16694646 0.09933342 0.99496895 21635810
-0.16739102 0.099710941 0.99856025 23385172
-0.16782664 0.10008882 1.0021596 26817813
-0.16626392 0.10014752 1.0035393 26817813
-0.16271715 0.099886619 1.0026872 26817813
-0.14768441 0.10281739 1.0398633 21830009
-0.14609979 0.10287701 1.0412626 21830009
-0.14451484 0.10293663 1.0426619 29409472
-0.13914011 0.10235024 1.0394409 21830009
-0.12937211 0.10100911 1.0308051 32259260
-0.10179745 0.096920714 1.0033689 27530388
-0.095293269 0.096113905 0.99848992 27530388
-0.093182489 0.096061923 0.99902576 27530388
-0.092942894 0.096333668 1.001893 27530388
-0.10546178 0.09914843 1.0240345 21311889
-0.097194344 0.098670766 1.0233679 21311889
-0.093836561 0.098402776 1.0223494 27724587
-0.047059759 0.091356717 0.97469002 25004521
-0.042615861 0.09086673 0.97197551 25004521
-0.039396062 0.090593494 0.97083479 25004521
-0.039202809 0.09086363 0.97366136 25004521
-0.043217123 0.091895394 0.98206717 22737586
-0.067646772 0.097284928 1.0242305 24874799
-0.070330963 0.098103873 1.0311553 30121791
-0.078345031 0.099905238 1.0453241 20275649
-0.082753301 0.10105357 1.0547097 23190973
-0.087723002 0.10231233 1.0649269 24939532
-0.089120194 0.1029169 1.0703325 24939532
-0.089913294 0.10341275 1.0749435 31870606
-0.089520633 0.10369042 1.0779457 31287753
-0.088536769 0.10385876 1.0801427 28437965
-0.084229022 0.10375793 1.081291 28437965
-0.063852981 0.10307846 1.0846779 19757529
-0.060597882 0.10280658 1.0835688 19757529
-0.052575633 0.10231978 1.0826857 27595121
-0.049913332 0.10215703 1.082381 27595121
-0.04725717 0.10199412 1.0820706 27595121
-0.044606373 0.10183097 1.0817554 27595121
-0.041405097 0.1015571 1.0805993 24745333
-0.038768128 0.10139341 1.0802722 24745333
-0.036137208 0.1012295 1.0799396 24745333
-0.031853691 0.10073347 1.0770831 24745333
-0.028687224 0.10045829 1.0758955 24745333
-0.024430558 0.099961229 1.0730152 29409472
-0.020736739 0.099574491 1.0709653 29409472
-0.016508058 0.09907639 1.0680606 29409472
-0.013385043 0.098799594 1.0668347 29409472
-0.1596341 0.096338987 0.94814891 27400922
-0.16293611 0.097148545 0.95452672 27400922
-0.16485022 0.097743571 0.95947474 27400922
-0.16606741 0.098231427 0.96371096 27400922
-0.16659169 0.098611861 0.96723098 27400922
-0.16710718 0.098992594 0.97075874 26234960
-0.16693591 0.099265829 0.97356528 26234960
-0.16675891 0.099539325 0.97637731 18202913
-0.16725056 0.099920981 0.97992605 21635810
-0.16705991 0.10019501 0.98274952 21635810
-0.16686355 0.10046918 0.98557824 21635810
-0.16733147 0.10085176 0.9891482 21635810
-0.1671216 0.10112644 0.99198896 21635810
-0.16757296 0.10150962 0.99557334 21635810
-0.15077089 0.10414235 1.0303254 18397368
-0.14983432 0.10431097 1.0324802 21830009
-0.1482556 0.10437027 1.0338743 21830009
-0.14667679 0.10442968 1.0352685 21830009
-0.14637049 0.10470799 1.0381944 21830009
-0.14542358 0.10487699 1.0403585 21830009
-0.13909881 0.10444782 1.0393047 21830009
-0.12933116 0.10308097 1.0306704 32259260
-0.1120577 0.10039572 1.0127313 27854309
-0.10050352 0.098695837 1.0016916 27530388
-0.094628274 0.097982891 0.99758607 27530388
-0.092518806 0.097928852 0.99812096 27530388
-0.09165816 0.098094612 1.0002089 27530388
-0.095764518 0.099140771 1.008532 31028565
-0.10170318 0.10051818 1.0192199 21311889
-0.10389657 0.10123602 1.0252492 21311889
-0.098053843 0.10052204 1.0211146 21311889
-0.086694345 0.098814845 1.009903 25133987
-0.085817099 0.098981217 1.0120051 31028565
-0.053919032 0.094177842 0.98042732 25004521
-0.047630593 0.093347199 0.97535866 25004521
-0.04318513 0.092847392 0.97264594 22737586
-0.040569171 0.092678845 0.97230095 25004521
-0.039769143 0.09284234 0.9743349 25004521
-0.084132984 0.10371343 1.0599606 23190973
-0.086128622 0.1044387 1.0661645 24939532
-0.088695288 0.10527597 1.0731919 31870606
-0.088305488 0.10555739 1.0761914 31870606
-0.087324023 0.10572769 1.0783854 28437965
-0.084187463 0.10584561 1.0811551 28437965
-0.059988901 0.10475466 1.0826085 19757529
-0.049310848 0.10408903 1.0814164 27595121
-0.046656504 0.10392202 1.0811055 27595121
-0.043448851 0.10364241 1.0799551 27595121
-0.04080753 0.10347497 1.0796318 24745333
-0.03817229 0.10330728 1.0793035 24745333
-0.03554298 0.10313938 1.0789702 24745333
-0.031813487 0.10274608 1.0769525 24745333
-0.02069734 0.10156328 1.0708363 29409472
-0.0170158 0.10116816 1.0687768 29409472
-0.01334624 0.10077249 1.0667064 29409472
-0.010232076 0.10048948 1.0654733 29409472
-0.16096793 0.098546863 0.94946212 17037207
-0.16289659 0.099151202 0.95439655 27400922
-0.1648104 0.099756114 0.95934409 27400922
-0.16534518 0.10014217 0.96285456 27400922
-0.16587101 0.1005284 0.96637267 27400922
-0.16570853 0.1008053 0.96917111 27400922
-0.16621827 0.10119221 0.97270411 18202913
-0.1653664 0.10135965 0.97478372 18202913
-0.16518585 0.1016371 0.97759801 18202913
-0.16567309 0.10202495 0.98115045 18202913
-0.16547962 0.10230302 0.9839763 18202913
-0.09783259 0.094964474 0.94680315 21441355
-0.14816143 0.10579702 1.0271468 18397368
-0.14723043 0.10596748 1.0292959 18397368
-0.14408509 0.10608568 1.0320735 21830009
-0.14189903 0.10670935 1.039314 21830009
-0.11138937 0.10230637 1.0118277 27854309
-0.099209681 0.10046294 1.0000148 27530388
-0.091855526 0.099791892 0.99721628 27530388
-0.090996295 0.099959604 0.99930269 27530388
-0.094482526 0.1009115 1.0068443 31028565
-0.098564595 0.10197628 1.0151873 31028565
-0.097055852 0.10203306 1.0165198 21311889
-0.052662835 0.095850743 0.97872514 25004521
-0.046377763 0.095004126 0.97365505 22737586
-0.043148056 0.094719425 0.97252434 22737586
-0.040532023 0.094547033 0.97217959 25004521
-0.040335566 0.094825119 0.97500795 25004521
-0.082548141 0.10582749 1.0611911 23190973
-0.086503223 0.10730327 1.0736282 31870606
-0.05881305 0.10658465 1.0808225 19757529
-0.048708871 0.10601691 1.0804524 27595121
-0.046055838 0.10584595 1.0801401 27595121
-0.042291358 0.105446 1.0781543 24745333
-0.039652899 0.10527454 1.0778291 24745333
-0.037020579 0.10510277 1.0774987 24745333
-0.034948662 0.10504527 1.0780008 24745333
-0.031221136 0.10464393 1.0759823 24745333
-0.023251668 0.10372523 1.0710719 29409472
-0.020109817 0.10343731 1.069864 29409472
-0.015883014 0.10291935 1.0669589 33360233
-0.012216493 0.10251575 1.0648866 33360233
-0.0091056675 0.10222665 1.0636511 30575178
-0.0060037524 0.10193712 1.0624075 33360233
-0.16036128 0.10014886 0.9458515 27400922
-0.16161521 0.10065114 0.95005387 17037207
-0.1628571 0.10115383 0.95426637 27400922
-0.16477077 0.1017686 0.95921344 27400922
-0.16530521 0.10216052 0.96272331 27400922
-0.16515039 0.10244107 0.96551496 27400922
-0.16566853 0.10283367 0.96903938 27400922
-0.16550015 0.1031146 0.97184283 18202913
-0.16532584 0.10339589 0.9746514 18202913
-0.16514559 0.1036774 0.97746545 18202913
-0.16563247 0.10407118 0.98101717 18202913
-0.16216366 0.10571242 0.99868125 21635810
-0.098447219 0.096982934 0.94743055 21441355
-0.09701407 0.097036876 0.94869608 21441355
-0.14454345 0.10692442 1.0195501 25328186
-0.14555188 0.10743586 1.0239689 25328186
-0.14590813 0.10783459 1.0276365 25328186
-0.14433818 0.10789361 1.0290225 25328186
-0.14276849 0.1079526 1.0304086 25328186
-0.1405627 0.10789824 1.0310292 32259260
-0.14026348 0.10818414 1.0339482 21830009
-0.13995852 0.1084703 1.0368724 25911295
-0.1345949 0.10784788 1.0336447 25911295
-0.1082065 0.10375813 1.0078351 28049311
-0.097916543 0.10222227 0.99833852 27530388
-0.091816679 0.10176489 0.99708802 27530388
-0.090334684 0.10182058 0.99839669 27530388
-0.092579603 0.10256024 1.0043786 27530388
-0.095426396 0.10341466 1.0111561 31028565
-0.091452539 0.10301463 1.0093563 31028565
-0.080706298 0.1013585 0.99893504 24680600
-0.045732781 0.096767604 0.97274226 22737586
-0.042504728 0.096476875 0.97161072 22737586
-0.040495053 0.096415147 0.97205788 22737586
-0.073658273 0.10615606 1.0489616 27206467
-0.078020751 0.10736553 1.0583827 23190973
-0.057069555 0.10829077 1.0782106 26688347
-0.046575561 0.10799853 1.0808403 27595121
-0.036980465 0.10712319 1.0773673 24745333
-0.034354523 0.10694725 1.0770316 24745333
-0.030628368 0.10653795 1.0750122 31676407
-0.027465716 0.10624484 1.0738232 31676407
-0.023212269 0.10571805 1.0709424 29409472
-0.018973991 0.10519064 1.0680487 29409472
-0.01529704 0.10477949 1.0659859 33360233
-0.011632189 0.10436792 1.0639129 33360233
-0.0085229427 0.10407279 1.0626762 30575178
-0.0048802644 0.10366038 1.0605836 30575178
-0.00016762316 0.10301346 1.0567808 30575178
-0.15767758 0.10139915 0.94009465 17037207
-0.15963401 0.10202215 0.94500297 27400922
-0.16088922 0.10253233 0.94920319 17037207
-0.16213249 0.10304292 0.95341426 27400922
-0.16336371 0.1035539 0.95763534 27400922
-0.16390137 0.10395166 0.96114272 27400922
-0.16442977 0.10434974 0.96465749 27400922
-0.16562818 0.10486195 0.96890765 27400922
-0.16545986 0.10514701 0.97171062 18202913
-0.16528545 0.10543219 0.97451919 18202913
-0.16577969 0.10583163 0.97806412 18202913
-0.099842697 0.098836742 0.94604129 21441355
-0.098409474 0.098890603 0.94730669 21441355
-0.09632583 0.098829664 0.94781965 21441355
-0.13832282 0.10756067 1.0089459 27271200
-0.14165927 0.10882855 1.0192719 25328186
-0.14202391 0.10923282 1.0229306 25328186
-0.13982444 0.10917614 1.0235462 32259260
-0.13890247 0.10935014 1.0256875 32259260
-0.13670568 0.10929345 1.0263002 32259260
-0.13578074 0.10946751 1.0284441 32259260
-0.13295378 0.10929517 1.028286 32259260
-0.13013278 0.10912258 1.0281227 31158031
-0.11975728 0.10756215 1.0187039 31158031
-0.097250208 0.10408936 0.99743623 27530388
-0.092634171 0.10356627 0.99487633 21052701
-0.091153607 0.10362194 0.99618381 27530388
-0.089673251 0.10367761 0.9974913 27530388
-0.090676948 0.10419712 1.0019135 27530388
-0.0922883 0.10483325 1.0071259 31028565
-0.083995163 0.10361255 0.99985069 24680600
-0.048932493 0.098939814 0.97374374 22737586
-0.044480249 0.098410599 0.97103924 22737586
-0.042467624 0.098346904 0.97148925 22737586
-0.040458187 0.098283201 0.97193664 22737586
-0.067388579 0.10730211 1.0437131 27206467
-0.064330265 0.11034296 1.0742846 26105494
-0.062216684 0.11028308 1.0748239 23255706
-0.059535518 0.11010528 1.0745373 23255706
-0.045415208 0.10980029 1.0790431 27595121
-0.036384955 0.10902528 1.0763996 24745333
-0.033205971 0.10872678 1.0752251 24745333
-0.030035838 0.10842804 1.0740428 31676407
-0.026875004 0.10812884 1.0728528 29409472
-0.02317293 0.10771073 1.0708129 29409472
-0.0183862 0.10705476 1.0670767 33360233
-0.014164165 0.10651693 1.0641689 33360233
-0.010502502 0.10609726 1.0620937 33360233
-0.0073964149 0.10579606 1.0608552 33360233
-0.0042993277 0.10549455 1.0596085 30575178
-0.00012950599 0.1049547 1.0566549 30575178
