# .PCD v0.7 - Point Cloud Data file format
VERSION 0.7
FIELDS x y z rgba
SIZE 4 4 4 4
TYPE F F F U
COUNT 1 1 1 1
WIDTH 1107
HEIGHT 1
VIEWPOINT 0 0 0 1 0 0 0
POINTS 1107
DATA ascii
-0.037265882 0.10705373 1.0021541 27595121
-0.041699514 0.10833962 1.0115061 27595121
-0.048444882 0.11011956 1.0241234 31093298
-0.053397015 0.11153127 1.0343442 22543131
-0.057733998 0.11282068 1.0437813 25976028
-0.061460376 0.11398799 1.0524309 21635810
-0.060524896 0.11416841 1.0545835 21635810
-0.061527357 0.11514751 1.0629854 21635810
-0.060575679 0.1153286 1.0651524 21635810
-0.059047595 0.11538605 1.0665016 21635810
-0.0575196 0.11544351 1.0678513 32064805
-0.055420712 0.11537722 1.0683775 32064805
-0.052756295 0.11518676 1.0680771 32064805
-0.05009751 0.11499628 1.0677714 32064805
-0.047444955 0.1148055 1.0674605 32064805
-0.045362398 0.11473862 1.0679727 32064805
-0.043283328 0.11467145 1.0684819 23709093
-0.037781432 0.11502356 1.0746672 23709093
-0.03515403 0.11483187 1.0743339 23709093
-0.032532617 0.11463995 1.0739954 23709093
-0.028811678 0.11419884 1.0719743 27271200
-0.025653735 0.11388185 1.0707827 27271200
-0.021955296 0.11343987 1.0687418 22283396
-0.01717256 0.11274809 1.0650053 27271200
-0.012953952 0.11218045 1.0620966 22283396
-0.0082050711 0.11148749 1.0583301 22283396
-0.0040181726 0.11091856 1.0553942 22283396
-0.00038813055 0.11047398 1.0532928 18850755
-0.15062778 0.10808576 0.93240303 27854309
-0.15328626 0.10886923 0.93801481 18008714
-0.15592696 0.10965336 0.94364196 18008714
-0.15786491 0.1103166 0.94856375 18008714
-0.15978782 0.11098049 0.95349807 21441355
-0.16033225 0.11140176 0.95699674 21441355
-0.16222869 0.1120666 0.96195537 21441355
-0.16478895 0.11285377 0.96765345 31870606
-0.16665404 0.11351983 0.97263914 31870606
-0.16580026 0.11369918 0.97471935 31870606
-0.16629259 0.1141224 0.97826427 31870606
-0.16475736 0.11418005 0.97962028 31870606
-0.16254993 0.11411587 0.98024267 31870606
-0.159676 0.11392946 0.98012763 31870606
-0.1588134 0.11410917 0.9822157 18591567
-0.15242045 0.11361333 0.98122829 33101301
-0.15023111 0.11354847 0.98183495 33101301
-0.14870737 0.11360567 0.9831807 33101301
-0.14718382 0.11366301 0.9845261 33101301
-0.14170264 0.11298571 0.98140711 19822262
-0.13623898 0.1123077 0.9782725 25004521
-0.099691689 0.10646742 0.94554526 26170227
-0.097606435 0.10639849 0.94606036 26170227
-0.096174851 0.10645235 0.94732434 26170227
-0.095392615 0.10662899 0.9493416 26170227
-0.097845837 0.10742014 0.95513445 26170227
-0.12204163 0.11269427 0.98948282 24486145
-0.12632684 0.11385832 0.99763793 23903292
-0.12673442 0.11428478 1.0012574 23903292
-0.12713282 0.11471149 1.0048847 23903292
-0.12496735 0.11464568 1.0054705 23903292
-0.12599175 0.11519607 1.0098722 18138180
-0.12382467 0.11513037 1.0104592 18138180
-0.1229295 0.11531115 1.0125763 18138180
-0.11760132 0.1146281 1.0093224 18138180
-0.11481616 0.11443845 1.0091283 18138180
-0.1107773 0.11400139 1.0073886 32000072
-0.10298024 0.11282212 1.0010087 32000072
-0.096466243 0.11188915 0.99614841 23190973
-0.092478275 0.11145014 0.99436408 23190973
-0.089749828 0.11125832 0.99412042 23190973
-0.087649897 0.11119 0.99464828 23190973
-0.085552722 0.11112169 0.99517328 23190973
-0.083458841 0.11105315 0.99569625 31028565
-0.076423556 0.10999254 0.98996979 32971579
-0.068182364 0.10868286 0.98265535 21182423
-0.059973419 0.10737196 0.97531193 21182423
-0.05486533 0.10668058 0.97186369 26429415
-0.050386697 0.10611279 0.96918553 26429415
-0.047754899 0.10591728 0.96885663 26429415
-0.045129254 0.10572145 0.96852237 26429415
-0.043116897 0.10564996 0.96897274 23579627
-0.041713491 0.10570271 0.97021204 23579627
-0.039705709 0.10563094 0.9706586 23579627
-0.040113375 0.10605741 0.97427791 23579627
-0.040512234 0.10648406 0.97790557 23579627
-0.042102009 0.10716049 0.98313421 27012268
-0.038888097 0.1068396 0.98199278 27012268
-0.036656544 0.10707075 0.98528999 27012268
-0.035241276 0.10712398 0.98653978 27012268
-0.033826098 0.10717721 0.98778909 27012268
-0.033002064 0.10735548 0.98984331 27012268
-0.033354625 0.10778392 0.99351162 27012268
-0.034286782 0.10833774 0.99799484 17101940
-0.041382536 0.11057394 1.0142798 31093298
-0.047519907 0.11225722 1.0261054 31093298
-0.055612221 0.11475044 1.0441635 25976028
-0.058810785 0.11698598 1.0625634 21635810
-0.057860538 0.11716897 1.0647292 32064805
-0.056335464 0.11722634 1.066076 32064805
-0.0548103 0.11728366 1.0674226 32064805
-0.052147165 0.11708932 1.067121 32064805
-0.044758424 0.11663095 1.0670133 32064805
-0.042680427 0.1165619 1.0675213 32064805
-0.040374681 0.11723753 1.0748634 25716840
-0.037184432 0.1169158 1.0737014 25716840
-0.034558669 0.11672007 1.0733669 25716840
-0.031938568 0.11652414 1.0730276 25716840
-0.028219417 0.11607499 1.0710056 27271200
-0.025063381 0.11575194 1.069813 27271200
-0.021366611 0.11530197 1.0677712 27271200
-0.016585097 0.1145984 1.064034 22283396
-0.011275157 0.11376744 1.0594375 18850755
-0.0065311939 0.11306236 1.0556674 22283396
-0.0023485571 0.11248348 1.0527284 18850755
0.00073488057 0.11215771 1.0514715 18850755
-0.14912038 0.11009613 0.93357307 27854309
-0.15314235 0.1111386 0.94063228 18008714
-0.15440135 0.1116881 0.9448263 18008714
-0.15701495 0.11248518 0.95047659 18008714
-0.15824698 0.11303566 0.95469397 21441355
-0.15946718 0.11358661 0.95892209 21441355
-0.16067545 0.11413798 0.96316069 21441355
-0.16187175 0.11468992 0.96740931 31870606
-0.16035257 0.11474705 0.96875113 31870606
-0.16153108 0.11529959 0.97301584 31870606
-0.15933309 0.11523301 0.97363037 31870606
-0.15579502 0.11491839 0.9727754 31870606
-0.15494572 0.11509959 0.97485191 31870606
-0.15342511 0.11515678 0.9761948 31870606
-0.14990337 0.11484151 0.97532541 33101301
-0.14838724 0.11489855 0.97666448 33101301
-0.14620684 0.11483131 0.97726339 33101301
-0.1446919 0.11488829 0.97860092 33101301
-0.14251624 0.11482088 0.97919601 33101301
-0.13968377 0.11462898 0.97904438 33101301
-0.1335669 0.11381442 0.97516125 25004521
-0.10030745 0.10849965 0.94617051 26170227
-0.09822084 0.1084289 0.94668692 26170227
-0.096787855 0.10848276 0.94795233 26170227
-0.09600392 0.10866152 0.94997078 26170227
-0.098455653 0.10946462 0.95576411 20081194
-0.12307046 0.11525366 0.99371451 24486145
-0.12348549 0.11568574 0.99732739 23903292
-0.12389164 0.11611805 1.000948 23903292
-0.12237208 0.11617524 1.0022891 23903292
-0.12340204 0.11673332 1.0066853 23903292
-0.12251262 0.11691604 1.0087972 18138180
-0.11908339 0.11659726 1.0078466 18138180
-0.11566274 0.11627827 1.0068879 18138180
-0.11351371 0.11620983 1.0074592 18138180
-0.10947786 0.11576474 1.0057175 32000072
-0.10168412 0.11456563 0.99933618 32000072
-0.095800653 0.11374233 0.99524707 23190973
-0.092439368 0.11342112 0.99423593 23190973
-0.089086995 0.11309952 0.99321705 31028565
-0.086988524 0.11302925 0.99374384 31028565
-0.084892958 0.11295884 0.994268 31028565
-0.082800418 0.11288828 0.99478954 31028565
-0.076385066 0.11193585 0.98984319 32971579
-0.067527756 0.11047835 0.9817484 21182423
-0.058091119 0.10889334 0.97283858 21182423
-0.049737796 0.10786454 0.96827763 26429415
-0.047107622 0.10766499 0.96794766 26429415
-0.045092285 0.10759161 0.96840078 26429415
-0.043079987 0.10751802 0.96885127 23579627
-0.041676775 0.10757083 0.97009045 23579627
-0.039668873 0.1074971 0.97053736 23579627
-0.039473161 0.10780286 0.97336274 23579627
-0.039271802 0.10810884 0.97619349 23579627
-0.039064333 0.1084151 0.97902936 23579627
-0.036456004 0.10821479 0.9786796 23579627
-0.035048485 0.10826769 0.97992259 23579627
-0.033045277 0.10819379 0.98036522 27012268
-0.032233089 0.10837353 0.98240882 27012268
-0.031417981 0.1085534 0.98445481 27012268
-0.030599907 0.10873339 0.98650354 17101940
-0.029778734 0.10891346 0.98855489 17101940
-0.031307891 0.10960201 0.9938367 17101940
-0.032235309 0.11016399 0.99832338 17101940
-0.03549169 0.11123533 1.0060587 27595121
-0.04105936 0.11281653 1.0170586 31093298
-0.046009257 0.11427177 1.0272777 31093298
-0.049183801 0.11534608 1.0350852 25976028
-0.05233483 0.11642132 1.0429139 25976028
-0.054306135 0.11724252 1.0491309 25976028
-0.054380164 0.11843338 1.0596769 21635810
-0.053435758 0.11861814 1.0618372 32064805
-0.051918164 0.11867524 1.0631773 32064805
-0.049831435 0.11860449 1.0636933 32064805
-0.044154093 0.11851943 1.0660543 32064805
-0.04151459 0.11832029 1.065732 32064805
-0.038100943 0.11874712 1.0713995 25716840
-0.0354736 0.11854745 1.0710666 25716840
-0.033407912 0.11847595 1.0715644 25716840
-0.030790731 0.11827584 1.0712225 25716840
-0.027074739 0.11781882 1.0691984 27271200
-0.022819534 0.11723281 1.0663242 27271200
-0.018578991 0.11664615 1.0634367 27271200
-0.013805583 0.11593027 1.0596938 18850755
-0.0079567879 0.11495651 1.0542476 18850755
-0.0037668496 0.11436797 1.051316 18850755
-0.00013567507 0.1139077 1.049217 18850755
-0.14495526 0.11129925 0.92913288 27854309
-0.14692692 0.11198107 0.93402284 27854309
-0.15093817 0.11303978 0.94109029 17490594
-0.15150885 0.11347196 0.94456464 17490594
-0.15343465 0.11415546 0.94949538 18008714
-0.15438066 0.11532945 0.95926946 21441355
-0.14919923 0.11537305 0.96251875 18073447
-0.14904065 0.11568139 0.96531099 18073447
-0.14753602 0.11573798 0.9666397 33101301
-0.14736907 0.11604663 0.96944004 33101301
-0.14519458 0.11597721 0.97003359 33101301
-0.14302309 0.11590774 0.97062474 33101301
-0.14085518 0.11583798 0.9712134 33101301
-0.14001463 0.11602085 0.97328156 33101301
-0.13917129 0.1162037 0.97535259 25004521
-0.13700591 0.11613397 0.97593826 25004521
-0.13221131 0.11555827 0.9735412 25004521
-0.10092324 0.11053593 0.94679552 26170227
-0.097530887 0.11020989 0.94581252 26170227
-0.096099511 0.11026365 0.94707662 20081194
-0.095317066 0.11044436 0.94909364 20081194
-0.097122386 0.11113236 0.95413071 20081194
-0.11981525 0.11662919 0.98979264 24486145
-0.11959545 0.11693979 0.99263912 24486145
-0.11936985 0.11725063 0.99549013 24486145
-0.11722253 0.11718027 0.99606055 24486145
-0.11762698 0.11761857 0.99968213 24486145
-0.11675106 0.11780269 1.0017819 18138180
-0.11650623 0.11811427 1.0046504 18138180
-0.11435708 0.11804394 1.0052218 18138180
-0.11031714 0.11759106 1.0034845 32000072
-0.10628916 0.11713778 1.0017366 32000072
-0.10101625 0.11642889 0.9984352 28243510
-0.095134646 0.11559168 0.99434572 23190973
-0.091775119 0.11526444 0.993334 31028565
-0.089048013 0.11506463 0.99308938 31028565
-0.08632718 0.1148646 0.99283963 31028565
-0.084233105 0.11479213 0.99336272 31028565
-0.081522688 0.11459161 0.99310368 31028565
-0.073874921 0.1133673 0.98659497 32971579
-0.056208909 0.11040295 0.97036618 26429415
-0.051723436 0.10981566 0.96769589 26429415
-0.048476681 0.10948414 0.96658427 26623614
-0.045849368 0.10928062 0.96625167 26623614
-0.043837309 0.10920513 0.96670252 23579627
-0.042435646 0.10925771 0.96794039 23579627
-0.040427685 0.10918207 0.96838695 23579627
-0.039027244 0.1092347 0.96962363 23579627
-0.038230211 0.10941588 0.97165388 23579627
-0.038031518 0.10972575 0.9744814 23579627
-0.036626875 0.10977844 0.97572201 30380979
-0.034024775 0.10957403 0.97536725 30380979
-0.032025933 0.10949805 0.97580606 30380979
-0.030029938 0.10942186 0.97624248 30380979
-0.028631046 0.10947446 0.97747773 30380979
-0.028417721 0.10978483 0.98031873 17101940
-0.027606979 0.10996652 0.98236054 17101940
-0.026793465 0.11014829 0.98440522 17101940
-0.027741328 0.11071744 0.98887295 17101940
-0.029264018 0.11141614 0.99415928 17101940
-0.03194277 0.11237373 1.0010777 27595121
-0.034600094 0.11333216 1.0080144 27595121
-0.039565906 0.11480857 1.0182178 31093298
-0.04333739 0.11602753 1.0268233 30704644
-0.045923695 0.11698858 1.0338228 22543131
-0.047333255 0.11769154 1.0392089 25976028
-0.048152015 0.11826549 1.0437908 25976028
-0.045809582 0.1197143 1.0577953 32064805
-0.044871226 0.11990074 1.0599501 32064805
-0.043363824 0.11995742 1.0612812 32064805
-0.041291937 0.11988416 1.0617845 32064805
-0.03922306 0.11981081 1.0622847 32064805
-0.037718758 0.11986736 1.0636132 32064805
-0.03565459 0.11979375 1.06411 25716840
-0.033593252 0.11972011 1.064604 25716840
-0.031535074 0.11964626 1.0650954 25716840
-0.028924182 0.11944205 1.0647485 27271200
-0.027427182 0.11949839 1.0660703 27271200
-0.02372022 0.11903302 1.064039 27271200
-0.019474015 0.11843675 1.0611572 27271200
-0.01414378 0.11757878 1.0565808 18850755
-0.0088342875 0.11672009 1.051986 16907741
-0.0035457164 0.11586057 1.0473728 16907741
8.6888671e-05 0.11539245 1.0452757 26364426
-0.14208429 0.11304272 0.92885548 27854309
-0.14336671 0.11360721 0.93302733 27854309
-0.14327054 0.11391709 0.93576449 27854309
-0.14453201 0.11448237 0.93995446 21506088
-0.14510126 0.11492041 0.94343001 21506088
-0.14498292 0.11523124 0.94618672 21506088
-0.14485855 0.11554223 0.94894856 21506088
-0.14472787 0.11585359 0.95171565 18073447
-0.14243095 0.11609308 0.95507056 18073447
-0.14295833 0.11653281 0.95858246 18073447
-0.14079778 0.11646078 0.95916456 18073447
-0.1413133 0.11690091 0.96268719 25004521
-0.13981943 0.11695715 0.96400636 25004521
-0.13899098 0.11714145 0.96606416 25004521
-0.13616781 0.11694121 0.96590525 25004521
-0.13732515 0.11751042 0.97018725 25004521
-0.13516574 0.1174384 0.97076815 25004521
-0.13498758 0.11775149 0.9735772 25004521
-0.13151406 0.11742256 0.97266692 25004521
-0.12213998 0.115937 0.9650318 26429415
-0.098797306 0.1123729 0.94718927 26170227
-0.096061826 0.11216938 0.94695264 20081194
-0.095928386 0.11248074 0.94972271 20081194
-0.095789105 0.11279235 0.95249754 20081194
-0.11334378 0.11734004 0.98208147 28243510
-0.11378078 0.11778302 0.98567384 28243510
-0.11420901 0.11822645 0.98927397 24486145
-0.11462796 0.11867023 0.99288195 24486145
-0.11353238 0.11917091 0.99782771 24486145
-0.11202671 0.11922757 0.99915737 28243510
-0.10798971 0.11876664 0.99741763 28243510
-0.10522735 0.11856423 0.99720496 28243510
-0.10310079 0.11849094 0.9977569 28243510
-0.098463744 0.11789954 0.99522108 28243510
-0.093841776 0.11730748 0.99267238 28243510
-0.091110677 0.11710379 0.9924323 31028565
-0.088385373 0.11689996 0.99218649 31028565
-0.085665956 0.11669586 0.99193579 31028565
-0.082952902 0.11649156 0.99167949 31028565
-0.079626158 0.11615711 0.99063915 31028565
-0.072601035 0.11504278 0.98490828 32971579
-0.054941431 0.11203078 0.96867734 26429415
-0.049845994 0.11130337 0.96522087 26623614
-0.045812652 0.11114863 0.96613032 26623614
-0.04440935 0.11120138 0.9673695 23579627
-0.042398527 0.11112379 0.96781915 23579627
-0.040390626 0.11104617 0.96826595 23579627
-0.038385898 0.1109683 0.96871036 23579627
-0.037590027 0.11115152 0.97073895 23579627
-0.036190018 0.11120414 0.97197539 23579627
-0.034189686 0.11112622 0.97241575 23579627
-0.030995339 0.11078677 0.97125846 23579627
-0.029601023 0.11083923 0.97248977 30380979
-0.027610838 0.11076088 0.97292107 30380979
-0.025623873 0.11068241 0.97334963 30380979
-0.025417939 0.11099646 0.97618359 30380979
-0.025205508 0.11131079 0.97902304 30380979
-0.024987593 0.11162535 0.98186761 17101940
-0.025351569 0.11207125 0.98552424 17101940
-0.025706932 0.11251733 0.98918861 17101940
-0.0278088 0.11335731 0.99528891 17101940
-0.029892758 0.11419792 1.0014048 27595121
-0.032541052 0.11517059 1.0083485 27595121
-0.036910847 0.11653794 1.0177505 30704644
-0.040361539 0.11809308 1.02929 30704644
-0.040621296 0.11854283 1.0330381 30704644
-0.040872768 0.1189929 1.0367947 29474205
-0.041114852 0.11944326 1.0405588 29474205
-0.040204421 0.11963061 1.0426886 25976028
-0.041002318 0.12021334 1.0472884 25976028
-0.040081546 0.12040111 1.0494275 20210916
-0.039725319 0.1207209 1.0523942 20210916
-0.038797244 0.12090892 1.0545397 20210916
-0.037301645 0.12096519 1.0558603 20210916
-0.03468059 0.12075732 1.0555229 20210916
-0.032065228 0.12054939 1.0551801 20210916
-0.029456183 0.12034111 1.0548322 28696897
-0.027411267 0.1202649 1.0553119 28696897
-0.025369391 0.12018853 1.0557888 28696897
-0.023885563 0.12024427 1.0570991 27271200
-0.020740196 0.11990301 1.0558984 27271200
-0.017051205 0.11942901 1.0538518 18850755
-0.0069617778 0.1178172 1.0455232 16907741
-0.0011238307 0.11681146 1.0400696 26364426
0.002504155 0.11633522 1.0379694 26364426
-0.13990442 0.11490742 0.92929453 27854309
-0.13571624 0.11444432 0.92768961 27854309
-0.13563059 0.11475784 0.93041724 27854309
-0.13281764 0.1145533 0.93024927 27854309
-0.13476221 0.11525593 0.93516141 27854309
-0.13059615 0.11479197 0.93353659 21506088
-0.13320027 0.11562497 0.93919247 27854309
-0.13499044 0.11664366 0.94689256 21506088
-0.13419165 0.11682881 0.94892389 21506088
-0.13472973 0.11727401 0.95242649 21506088
-0.13525863 0.11771957 0.95593685 21506088
-0.13244455 0.11751506 0.95577055 21506088
-0.13163219 0.11770081 0.95781344 21506088
-0.13214479 0.11814687 0.96133846 25004521
-0.12999903 0.11807252 0.96190745 25004521
-0.1311606 0.11864939 0.96618515 25004521
-0.13165094 0.11909641 0.9697296 25004521
-0.12818457 0.11876132 0.96881312 25004521
-0.12472712 0.11842591 0.96788853 25004521
-0.11603872 0.11704601 0.9609763 26429415
-0.10542221 0.11527307 0.95178872 26429415
-0.10006359 0.11454377 0.9485653 26170227
-0.096674502 0.11420573 0.94758028 20081194
-0.095241904 0.11425964 0.9488458 20081194
-0.094456121 0.11444429 0.95086521 20081194
-0.095606014 0.11502167 0.95515329 20081194
-0.10989168 0.11898381 0.98098892 28243510
-0.10840833 0.11903951 0.98229891 28243510
-0.10947919 0.11961982 0.98665673 28243510
-0.10926422 0.11993822 0.98949856 28243510
-0.1090432 0.12025683 0.99234551 28243510
-0.10818188 0.12044434 0.99443179 28243510
-0.10415402 0.11997525 0.99268502 28243510
-0.10203168 0.11989994 0.99323303 28243510
-0.098653421 0.11956141 0.99223918 28243510
-0.094655409 0.11909113 0.99046582 28243510
-0.091922507 0.11888371 0.99022692 28243510
-0.089195892 0.11867595 0.98998302 31028565
-0.087099135 0.11859957 0.99050897 31028565
-0.084382921 0.1183914 0.99025589 31028565
-0.081672654 0.1181831 0.98999733 31028565
-0.077110156 0.11757893 0.98739654 31028565
-0.070091441 0.11644647 0.98166174 32971579
-0.059401155 0.1145213 0.97121316 26429415
-0.053059876 0.11351853 0.96620601 26429415
-0.049195483 0.11304329 0.964315 26623614
-0.044372201 0.11306956 0.9672479 23579627
-0.042361721 0.11298994 0.96769768 23579627
-0.040354028 0.11291028 0.96814483 23579627
-0.038349375 0.1128305 0.96858925 23579627
-0.036950424 0.11288319 0.96982449 23579627
-0.034950003 0.11280329 0.97026497 23579627
-0.03115271 0.11232547 0.96831447 23579627
-0.027965933 0.11197982 0.96715111 30380979
-0.025981888 0.1118992 0.96757716 30380979
-0.024596408 0.11195134 0.96880037 30380979
-0.024399236 0.11226907 0.97162646 30380979
-0.024195954 0.11258697 0.97445768 30380979
-0.023395345 0.11277225 0.9764902 17101940
-0.02318202 0.11309061 0.97933084 17101940
-0.023550376 0.11354218 0.98298305 17101940
-0.02449657 0.11412717 0.98745102 17101940
-0.025431022 0.1147126 0.99192959 17101940
-0.026936993 0.11543169 0.99722892 17101940
-0.028428122 0.11615137 1.0025415 17101940
-0.031065747 0.11713821 1.0094936 30963832
-0.036549076 0.11956949 1.0271916 30704644
-0.035661146 0.11975802 1.0293016 30704644
-0.035916582 0.12021392 1.0330534 30704644
-0.033876225 0.12013543 1.0335295 30704644
-0.034690365 0.12072543 1.0381143 25198720
-0.033785686 0.12091465 1.0402389 25198720
-0.033445612 0.1212377 1.0431907 25198720
-0.031402484 0.12115937 1.0436695 25198720
-0.031054869 0.12148275 1.046628 25198720
-0.027887151 0.12113643 1.0454473 25198720
-0.025289997 0.12092379 1.045089 25198720
-0.023258492 0.12084492 1.0455573 32129538
-0.020113274 0.12049793 1.0443571 32129538
-0.01697664 0.12015036 1.0431488 25198720
-0.0028675944 0.1183537 1.0357199 26364426
0.0018679649 0.11760084 1.0319464 26364426
-0.12877484 0.11537636 0.92305404 27854309
-0.12529694 0.11503574 0.92214841 25587374
-0.1238638 0.1150896 0.92341381 25587374
-0.12243097 0.11514349 0.92467934 25587374
-0.12302504 0.11559252 0.92813152 25587374
-0.12361042 0.11604188 0.93159181 25587374
-0.12553261 0.11675519 0.93652302 27854309
-0.12542598 0.11707348 0.93926865 27854309
-0.12732266 0.11778779 0.94422263 21506088
-0.12586276 0.1178427 0.94551152 21506088
-0.12373649 0.11776549 0.94606382 32518192
-0.125605 0.11848084 0.95104212 21506088
-0.1245123 0.11930759 0.95863539 26429415
-0.12435798 0.11962762 0.96142298 26429415
-0.12222408 0.11955068 0.96198183 26429415
-0.12009324 0.1194737 0.96253794 26429415
-0.11534517 0.11886663 0.9601019 26429415
-0.10538419 0.11719861 0.95166343 20081194
-0.099373937 0.11632476 0.9476909 20081194
-0.095335767 0.11584807 0.94595367 20081194
-0.093905866 0.11590181 0.94721669 20081194
-0.092475876 0.1159556 0.94847924 20081194
-0.092983916 0.11640785 0.95200795 20081194
-0.097831815 0.11811116 0.96363562 20081194
-0.10343683 0.11962868 0.97326881 24745333
-0.10068804 0.11941776 0.97304457 24745333
-0.10305372 0.12027153 0.97890991 28243510
-0.10285345 0.12059332 0.98173827 28243510
-0.10264701 0.12091539 0.98457199 28243510
-0.099898458 0.12070448 0.984348 28243510
-0.097155541 0.12049337 0.9841184 28243510
-0.095680833 0.12054882 0.98542076 28243510
-0.093576416 0.1204708 0.98595291 28243510
-0.091475293 0.1203927 0.98648304 31028565
-0.089376882 0.12031455 0.98701018 31028565
-0.087281466 0.12023617 0.98753494 31028565
-0.085189074 0.12015767 0.98805696 31028565
-0.082477435 0.11994544 0.98780006 31028565
-0.079150692 0.11959911 0.98676032 31028565
-0.073975548 0.11885092 0.98337632 32971579
-0.067582235 0.11783438 0.97841591 32971579
-0.056898609 0.1158793 0.96796435 26623614
-0.052407876 0.11526255 0.96530122 26429415
-0.049158484 0.11491326 0.9641934 26623614
-0.047142029 0.11483202 0.96464843 26623614
-0.043726414 0.11480341 0.96633869 23579627
-0.042324707 0.11485607 0.96757632 23579627
-0.040317088 0.11477443 0.9680236 23579627
-0.03831242 0.11469264 0.96846825 23579627
-0.036310464 0.11461083 0.96891016 23579627
-0.033710495 0.11439428 0.96855479 23579627
-0.028116271 0.11350488 0.9642145 23449905
-0.024937019 0.11315302 0.96304506 23449905
-0.02236338 0.11293551 0.96266598 30380979
-0.0209869 0.11298732 0.96388143 30380979
-0.021392658 0.11344338 0.96750051 30380979
-0.021789148 0.11389988 0.97112757 30380979
-0.022177026 0.11435661 0.97476238 17101940
-0.023145214 0.11494877 0.97921008 17101940
-0.022925541 0.11527119 0.98205549 17101940
-0.023286387 0.11572906 0.9857139 17101940
-0.022468284 0.11591686 0.98776227 17101940
-0.022230551 0.11624015 0.99062341 17101940
-0.023733541 0.11696932 0.99592465 17101940
-0.02580215 0.11783423 1.0020523 17101940
-0.031324938 0.12029762 1.0197127 30704644
-0.030450538 0.12048762 1.0218108 30704644
-0.030145869 0.12081339 1.0247309 30704644
-0.028692201 0.12086806 1.0260148 30704644
-0.028378859 0.12119401 1.0289428 25198720
-0.026922002 0.12124885 1.0302293 25198720
-0.02659972 0.12157518 1.0331655 25198720
-0.024008468 0.12135831 1.0328021 25198720
-0.023680285 0.12168492 1.0357435 32129538
-0.017392918 0.12097862 1.0333412 25198720
-0.0032590181 0.11915328 1.0259361 31546685
-0.00072269142 0.11893437 1.0255244 31546685
0.0018076152 0.11871526 1.0251074 31546685
0.0043320805 0.11849593 1.0246849 31546685
-0.1232187 0.11654287 0.91984969 25587374
-0.12043248 0.11632933 0.91965896 25587374
-0.11832999 0.11624924 0.92019016 25587374
-0.11690591 0.11630286 0.92144758 25587374
-0.11548175 0.11635638 0.92270511 25587374
-0.11405772 0.11640994 0.92396241 25587374
-0.11531864 0.11699898 0.92815119 25587374
-0.11388853 0.11705279 0.92941397 25587374
-0.11245868 0.11710655 0.93067676 25587374
-0.11502932 0.11796444 0.93636006 32518192
-0.11292519 0.11788446 0.93689257 32518192
-0.11347935 0.11834086 0.94038016 32518192
-0.11601163 0.11920027 0.94609731 32518192
-0.11522149 0.11938909 0.94812053 32518192
-0.11706601 0.12011523 0.95311922 26429415
-0.11560623 0.12017012 0.95440823 26429415
-0.1148029 0.12035946 0.95644301 26429415
-0.1107218 0.1198765 0.95474464 26429415
-0.10469268 0.11898953 0.95079011 20081194
-0.09803243 0.11796714 0.94606704 20081194
-0.094648004 0.11761714 0.94507903 20081194
-0.092570215 0.11753619 0.94558781 20081194
-0.090495914 0.11745498 0.94609445 25976028
-0.090362191 0.11777828 0.94886345 20081194
-0.090867162 0.11823661 0.95239395 20081194
-0.093292221 0.11910003 0.958206 20081194
-0.095699847 0.11996413 0.96403331 20081194
-0.095528975 0.12028869 0.9668352 24745333
-0.09726797 0.12101885 0.97192734 24745333
-0.093895689 0.1206683 0.97092873 24745333
-0.096252337 0.1215343 0.97680098 24745333
-0.093518496 0.12131891 0.97656411 24745333
-0.092688426 0.12150914 0.97862262 24745333
-0.089962021 0.12129346 0.97837907 24745333
-0.089130223 0.12148399 0.98043901 31028565
-0.0870395 0.12140343 0.98095971 31028565
-0.08557798 0.12145836 0.98224992 31028565
-0.083491668 0.12137774 0.98276681 31028565
-0.081408411 0.12129695 0.98328108 31028565
-0.078705713 0.12108042 0.98301667 31028565
-0.075388029 0.12072781 0.98196965 32971579
-0.068983138 0.11969586 0.97702092 32971579
-0.054396152 0.11722142 0.96471637 26623614
-0.049911603 0.11659453 0.96204883 26623614
-0.047894701 0.11651129 0.96250397 26623614
-0.04588145 0.11642791 0.96295649 26623614
-0.043080777 0.11653318 0.96542948 32388726
-0.041680515 0.1165859 0.96666592 32388726
-0.039674371 0.1165022 0.967112 23579627
-0.037671059 0.11641846 0.96755522 23579627
-0.03567107 0.11633448 0.96799606 23579627
-0.031869426 0.11584108 0.96605068 32388726
-0.02688016 0.11507405 0.96250325 23449905
-0.022506729 0.11444301 0.95973724 23449905
-0.021730289 0.11463133 0.96174854 30380979
-0.02095069 0.11481986 0.96376222 30380979
-0.021356091 0.1152818 0.96738106 30380979
-0.02056767 0.11547057 0.96940273 30380979
-0.021549329 0.11606997 0.97383839 19692796
-0.021489754 0.11718599 0.98316962 30380979
-0.020676002 0.11737575 0.98521382 30380979
-0.019621924 0.11789263 0.99012154 17101940
-0.019958958 0.11835728 0.99380034 17101940
-0.023182437 0.11950886 1.0015583 17101940
-0.023229644 0.12109814 1.0147722 30963832
-0.020650402 0.12087684 1.0143988 30963832
-0.020927951 0.12134374 1.0181303 30963832
-0.018921658 0.12126013 1.0185761 30963832
-0.017485842 0.12131412 1.0198443 30963832
-0.01548405 0.12123022 1.0202863 30963832
-0.0061291307 0.12015013 1.0166171 17684793
-0.0019092411 0.11951325 1.0137157 28114044
-0.0010537058 0.11970446 1.0157967 18591567
0.0025885552 0.11920509 1.013711 28114044
0.003997758 0.11925808 1.0149553 31546685
0.0054069906 0.11931107 1.0161998 31546685
0.0056884438 0.12170819 1.0363314 26364426
-0.12318082 0.11844457 0.91972619 25587374
-0.11416568 0.11765596 0.91840941 28761630
-0.11139892 0.11743782 0.91820174 29085551
-0.10796559 0.11708371 0.91725737 29085551
-0.10588361 0.11700089 0.91777021 29085551
-0.10447446 0.11705389 0.91901475 29085551
-0.10239707 0.1169709 0.91952389 29085551
-0.10165605 0.1171599 0.9215036 29085551
-0.10290785 0.11775715 0.92569953 29085551
-0.1034842 0.11821871 0.92916685 29085551
-0.10471375 0.11881677 0.93338281 29085551
-0.10527074 0.11927903 0.93686706 29085551
-0.1062316 0.12053157 0.9466216 26429415
-0.10413474 0.12044934 0.94714755 20081194
-0.10138756 0.12023049 0.94692296 20081194
-0.097342297 0.11973826 0.94519347 20081194
-0.093309253 0.1192456 0.94345325 20081194
-0.091234818 0.11916251 0.94395965 25976028
-0.089810833 0.11921603 0.94521731 25976028
-0.08838667 0.11926959 0.94647497 20081194
-0.087607011 0.11945996 0.94848889 20081194
-0.088110492 0.11992434 0.95202023 20081194
-0.089887947 0.12066291 0.95707756 20210916
-0.088450685 0.12071697 0.9583469 20210916
-0.090205759 0.1214563 0.96342391 20210916
-0.087486848 0.12123638 0.96317428 20210916
-0.088586912 0.12183935 0.96750408 24745333
-0.08650516 0.1217565 0.96801728 24745333
-0.086324021 0.12208555 0.970828 24745333
-0.084243491 0.12200267 0.97133964 32971579
-0.083425239 0.12219454 0.97338766 32971579
-0.082604051 0.12238639 0.97543842 32971579
-0.079899848 0.12216599 0.97517544 32971579
-0.077826977 0.12208293 0.97568041 32971579
-0.075133264 0.12186202 0.97540849 32971579
-0.072445467 0.1216409 0.97513109 32971579
-0.069143191 0.12128187 0.9740712 32971579
-0.065230384 0.12078459 0.97222489 32971579
-0.059475958 0.1198735 0.96802801 26623614
-0.053742826 0.11896149 0.96381313 26623614
-0.049259961 0.11832469 0.96114463 26623614
-0.047244921 0.11823937 0.96159881 26623614
-0.045232862 0.11815397 0.96205014 26623614
-0.042613402 0.11793036 0.96171242 32388726
-0.042435199 0.11825911 0.96452063 32388726
-0.04164353 0.11844999 0.96654481 32388726
-0.039637551 0.11836434 0.96699089 23579627
-0.037634298 0.1182786 0.96743435 23579627
-0.035634086 0.11819274 0.9678753 23579627
-0.030028597 0.11727599 0.96354729 23449905
-0.025643781 0.11663551 0.96079236 23449905
-0.021273643 0.11599437 0.95802444 23449905
-0.019903645 0.11604596 0.95923454 23449905
-0.018532738 0.11609737 0.96044487 30380979
-0.01894398 0.11656519 0.96405798 30380979
-0.018753812 0.11689449 0.96687657 30380979
-0.017934039 0.118214 0.97820359 19692796
-0.015277132 0.11911929 0.98717672 17101940
-0.016196415 0.11972905 0.99166685 17101940
-0.018258497 0.12061793 0.99779803 17101940
-0.017998382 0.12094987 1.0006785 17101940
-0.017157838 0.1211426 1.0027461 17101940
-0.016314402 0.12133536 1.0048163 17101940
-0.013753161 0.12110955 1.0044277 17101940
-0.012337789 0.12116275 1.0056772 17101940
-0.010353878 0.12107628 1.0061035 20858502
-0.0083730966 0.12098975 1.0065272 20858502
-0.0052639395 0.12062336 1.0052967 20858502
-0.0001976341 0.12016953 1.0044692 28114044
0.0023268312 0.11994237 1.0040472 28114044
0.0048449785 0.11971482 1.0036201 28114044
0.0062408894 0.11976727 1.004853 28114044
0.0076366812 0.11981986 1.0060854 28114044
0.0074742883 0.12190773 1.0231721 31546685
0.0066980869 0.12252284 1.0277882 26364426
0.0053872913 0.12327895 1.0332577 26364426
-0.10249048 0.11818781 0.91398579 29085551
-0.099749297 0.11796472 0.91375595 29085551
-0.097014114 0.1177415 0.91352075 25846306
-0.094951466 0.11765599 0.91401714 25846306
-0.094222486 0.11784653 0.91598612 25846306
-0.094154134 0.11817522 0.9186967 25846306
-0.094079837 0.11850408 0.92141289 25976028
-0.09589158 0.11957734 0.92908961 25976028
-0.095137045 0.11976884 0.931081 25976028
-0.094379574 0.11996032 0.93307513 25976028
-0.094929248 0.12042872 0.93656558 25976028
-0.094163001 0.12062072 0.93856734 25976028
-0.093393609 0.12081263 0.94057196 20081194
-0.091320738 0.12072752 0.94107741 25976028
-0.089250758 0.1206423 0.94157988 25976028
-0.087831035 0.12069576 0.94283348 25976028
-0.086411491 0.12074909 0.94408709 25976028
-0.084991932 0.12080244 0.94534069 27141734
-0.084858149 0.1211336 0.94810921 27141734
-0.084718317 0.12146498 0.95088309 27141734
-0.083292827 0.12151865 0.9521417 27141734
-0.082505733 0.12171126 0.95416218 27141734
-0.079804614 0.12148675 0.9538967 27141734
-0.080922827 0.12209689 0.95821053 27141734
-0.078858569 0.12201148 0.95870811 27141734
-0.079327971 0.12248296 0.96226937 20210916
-0.077894792 0.12253679 0.96353465 32971579
-0.076461956 0.12259067 0.9648003 32971579
-0.074400738 0.12250515 0.9652949 32971579
-0.072969317 0.12255893 0.96655911 32971579
-0.070287362 0.12233379 0.96627659 30639911
-0.068858951 0.12238745 0.9675383 32971579
-0.066808194 0.12230153 0.9680236 32971579
-0.062277913 0.12165653 0.96539801 30639911
-0.060239226 0.12157021 0.96587318 30639911
-0.056967869 0.12120406 0.96478623 26623614
-0.052473083 0.12055773 0.96212918 26623614
-0.047993496 0.11991087 0.95945877 25457908
-0.04598169 0.11982351 0.95990998 26623614
-0.043972433 0.11973599 0.96035904 32388726
-0.040572017 0.11970083 0.96203655 32388726
-0.039784819 0.11989344 0.96405691 32388726
-0.038389072 0.11994598 0.96528929 32388726
-0.035784736 0.11971772 0.9649387 32388726
-0.034391686 0.11977009 0.96616882 32388726
-0.028188482 0.1186989 0.96104485 23449905
-0.023808077 0.11804841 0.9582867 23449905
-0.019443005 0.11739721 0.95551533 23449905
-0.018673465 0.11758924 0.95751983 23449905
-0.016710564 0.11749995 0.95792812 23449905
-0.018313959 0.11825494 0.96313816 30380979
-0.0088546127 0.11942597 0.97811717 20534581
-0.008052662 0.11961915 0.98015052 20534581
-0.0078256279 0.11995385 0.98300177 20534581
-0.0070159584 0.12014731 0.9850418 20534581
-0.005054757 0.12005795 0.98544854 20534581
-0.0042423457 0.1202516 0.98749107 20534581
-0.0028554052 0.1203038 0.98871583 20534581
-0.0014685839 0.12035585 0.9899407 20534581
-0.00065012276 0.12054972 0.99198848 20534581
0.00073827803 0.12060194 0.99321455 20534581
0.0026922077 0.12051234 0.99361473 20534581
0.0046433061 0.12042264 0.99401242 28114044
0.0065915436 0.12033281 0.99440747 28114044
0.007975474 0.12038492 0.99562949 28114044
0.0069624037 0.12393401 1.0238898 31546685
0.0061879009 0.12455714 1.028507 26364426
-0.094248012 0.11937232 0.91315979 25846306
-0.092189819 0.11928464 0.91365224 25846306
-0.090798542 0.11933693 0.91488093 29085551
-0.088744983 0.11924911 0.91536945 29085551
-0.087354973 0.1193014 0.91659659 29085551
-0.085306033 0.11921341 0.91708106 29085551
-0.083917633 0.11926568 0.91830701 25976028
-0.083185568 0.11945821 0.92027849 25976028
-0.081795588 0.11951042 0.92150599 25976028
-0.08171232 0.1198437 0.92422956 25976028
-0.082274929 0.1203176 0.92770785 25976028
-0.083479017 0.12093241 0.93194503 25976028
-0.082724914 0.12112578 0.93393606 25976028
-0.082614645 0.12146004 0.93668348 25976028
-0.082498461 0.12179448 0.9394359 25976028
-0.081732616 0.12198833 0.94143766 27141734
-0.080320194 0.12204138 0.94268471 27141734
-0.079549462 0.12223544 0.94469029 27141734
-0.077495858 0.1221476 0.94517869 27141734
-0.076083481 0.12220073 0.94642574 27141734
-0.074034572 0.12211276 0.9469102 27141734
-0.074530289 0.12258919 0.95044786 27141734
-0.072481051 0.12250116 0.9509322 27141734
-0.071699828 0.12269554 0.95294708 27141734
-0.069653735 0.12260751 0.9534288 30639911
-0.068240061 0.12266064 0.95467705 30639911
-0.065570205 0.122431 0.95438462 30639911
-0.064786121 0.12262554 0.95640212 30639911
-0.063373879 0.12267864 0.95764905 30639911
-0.061338231 0.12259019 0.9581216 30639911
-0.053391397 0.12189875 0.95718879 25457908
-0.049971417 0.12186239 0.95888323 25457908
-0.047342062 0.12163115 0.9585554 25457908
-0.045331627 0.12154164 0.95900553 25457908
-0.043324023 0.12145222 0.9594534 32388726
-0.040709108 0.1212203 0.95911223 32388726
-0.039926484 0.12141494 0.96112829 32388726
-0.038533837 0.12146718 0.96235842 32388726
-0.03653492 0.12137743 0.96279806 32388726
-0.0339351 0.12114505 0.96244401 32388726
-0.031341121 0.12091248 0.96208435 32388726
-0.025746644 0.11996768 0.95774907 23449905
-0.021372646 0.11930694 0.95498604 23449905
-0.018210366 0.11893069 0.95380372 23449905
-0.016847 0.11898199 0.95500737 23449905
-0.014293358 0.11874799 0.95461231 23449905
-0.0018525869 0.11954585 0.96824795 20534581
-0.00048948824 0.11959706 0.96945184 20534581
-0.00028137863 0.11993498 0.97228569 20534581
0.00050847232 0.12012977 0.97430843 20534581
0.0018762797 0.12018121 0.9755159 20534581
0.0020977408 0.12051959 0.97836179 20534581
0.0034684092 0.12057114 0.97957212 24615867
0.0042690188 0.12076626 0.98160404 24615867
0.0056408793 0.12081777 0.98281568 24615867
0.0064457208 0.12101311 0.98485166 24615867
0.0072537214 0.12120857 0.9868899 24615867
0.0080646724 0.12140406 0.98893124 28114044
0.0088783652 0.12159965 0.99097472 28114044
-0.082632571 0.12049276 0.91398984 25976028
-0.080592588 0.12040249 0.91446656 25976028
-0.077898979 0.12016974 0.91419524 25198720
-0.075866178 0.12007918 0.91466528 25198720
-0.075142995 0.12027339 0.9166289 25198720
-0.074416518 0.12046773 0.9185949 25198720
-0.074337795 0.12080467 0.92131454 25198720
-0.076104373 0.1219073 0.92902893 25198720
-0.076003149 0.12224517 0.93176812 25198720
-0.074607208 0.12229762 0.93300074 25198720
-0.072568431 0.12220734 0.93347615 25198720
-0.070532873 0.1221168 0.93394881 27141734
-0.067860022 0.12188334 0.93365902 27141734
-0.066470236 0.12193561 0.9348864 27141734
-0.064443409 0.12184472 0.93535131 27141734
-0.064961463 0.12232635 0.93886846 27141734
-0.063568592 0.12237874 0.94009846 27141734
-0.06154339 0.12228782 0.94056231 27141734
-0.059520632 0.12219686 0.94102305 27141734
-0.058130845 0.12224916 0.94225043 27141734
-0.054856986 0.12187124 0.9411667 31805873
-0.05409801 0.1220668 0.94316179 31805873
-0.053336203 0.1222624 0.94515949 31805873
-0.051947773 0.12231467 0.94638544 31805873
-0.050559357 0.1223669 0.94761163 31805873
-0.048550397 0.12227539 0.94806057 31805873
-0.046544299 0.12218381 0.94850713 31805873
-0.045159057 0.12223583 0.94973046 31805873
-0.044389501 0.12243179 0.95173472 31805873
-0.043617383 0.12262788 0.95374149 32388726
-0.041615829 0.12253619 0.95418411 32388726
-0.039617494 0.12244422 0.954624 32388726
-0.037621602 0.12235231 0.95506114 32388726
-0.03684634 0.12254848 0.95707089 32388726
-0.034853682 0.12245644 0.95750552 32388726
-0.032258362 0.12221999 0.95714754 32388726
-0.029669091 0.1219833 0.95678443 23449905
-0.013986573 0.11973376 0.94810957 31805873
-0.012633696 0.11978463 0.94930416 31805873
-0.010685489 0.11969093 0.94969934 31805873
-0.0093340725 0.11974179 0.95089239 31805873
-0.0073907524 0.11964772 0.95128387 31805873
-0.0027536303 0.11965514 0.95405382 32388726
-0.0014053732 0.1197058 0.95524448 32388726
-5.7175756e-05 0.11975656 0.95643502 32388726
0.00070764124 0.11995224 0.95843536 32388726
0.00089348853 0.12029325 0.96124929 32388726
0.0022463351 0.12034421 0.96244377 32388726
0.0030200332 0.12054024 0.96445197 32388726
0.00379695 0.12073652 0.96646267 32388726
0.0045765787 0.12093285 0.96847588 24615867
0.0053593367 0.12112928 0.97049206 24615867
0.0055719763 0.12147123 0.97332996 24615867
0.0063620955 0.12166802 0.97535235 24615867
0.0065852553 0.12201045 0.9781993 24615867
-0.072493747 0.12153012 0.91351813 25198720
-0.071121603 0.12158171 0.91472954 19627807
-0.069749549 0.12163324 0.9159413 19627807
-0.069675103 0.12197403 0.91865653 19627807
-0.070241839 0.12245972 0.92213017 19627807
-0.068862364 0.12251163 0.92334825 19627807
-0.067482874 0.12256347 0.92456657 25198720
-0.065460548 0.12247059 0.92502743 19627807
-0.062800094 0.12223256 0.92472762 19627807
-0.058865383 0.12170462 0.922903 19627807
-0.057496399 0.12175611 0.92411178 22931785
-0.056127399 0.12180754 0.92532092 22931785
-0.056029141 0.12214918 0.92805713 31805873
-0.054023147 0.1220556 0.92850369 31805873
-0.052652657 0.12210722 0.92971402 31805873
-0.049388975 0.1217229 0.92862159 22931785
-0.048023194 0.1217742 0.92982799 22931785
-0.044145152 0.12124417 0.9279533 31805873
-0.043411419 0.12144072 0.92992586 31805873
-0.042049736 0.12149195 0.93112832 31805873
-0.040688187 0.12154312 0.93233067 31805873
-0.039948389 0.12174005 0.93430835 19951728
-0.03858538 0.12179121 0.93551236 19951728
-0.037222132 0.12184245 0.9367159 19951728
-0.036476493 0.12203949 0.93869895 19951728
-0.034076348 0.12297464 0.94744211 32388726
-0.032093987 0.12288023 0.94786805 32388726
-0.030723572 0.12293179 0.94907826 32388726
-0.015453666 0.12114004 0.9440158 31805873
-0.012304857 0.12075154 0.94282228 31805873
-0.010959521 0.12080211 0.94401032 31805873
-0.0090174228 0.12070615 0.94440049 31805873
-0.0076736659 0.12075665 0.9455871 31805873
-0.0063298494 0.12080712 0.94677371 31805873
-0.0049859732 0.12085772 0.94796032 31805873
-0.004233256 0.12105504 0.94994992 31805873
-0.0022983998 0.12095884 0.95033342 32388726
-0.0009547323 0.12100933 0.95152038 32388726
0.00038920343 0.12105986 0.95270687 32388726
0.0011480898 0.1212574 0.9547016 32388726
0.0019102246 0.12145504 0.95669931 32388726
0.0020931214 0.12179995 0.95951039 32388726
0.0028622895 0.1219978 0.96151441 32388726
0.0036345869 0.12219585 0.96352118 32388726
-0.064225212 0.1236662 0.9206689 19627807
-0.061567575 0.12342424 0.92036647 19627807
-0.058915839 0.12318202 0.92005903 19627807
-0.056270078 0.12293953 0.9197461 27724587
-0.053630263 0.12269685 0.91942817 27724587
-0.051633433 0.12260092 0.91986686 27724587
-0.050910041 0.12279914 0.92183036 22931785
-0.048282057 0.12255598 0.92150158 22931785
-0.046925023 0.122607 0.92270023 22931785
-0.044936895 0.12251083 0.92313117 31805873
-0.042951688 0.12241451 0.92355937 19951728
-0.040341482 0.12217069 0.92321509 19951728
-0.038990408 0.12222157 0.92440826 19951728
-0.037013948 0.12212495 0.92482883 22931785
-0.035664544 0.12217561 0.92602056 19951728
-0.034314558 0.12222639 0.92721254 19951728
-0.033585489 0.12242482 0.92918104 19951728
-0.032234237 0.12247565 0.93037432 19951728
-0.031500369 0.12267413 0.932347 24874799
-0.030147865 0.122725 0.93354136 19951728
-0.029409632 0.12292377 0.93551797 19951728
-0.028055206 0.12297467 0.93671364 19951728
-0.027312651 0.12317359 0.93869394 19951728
-0.025957063 0.12322447 0.93989092 19951728
-0.024601504 0.1232755 0.94108826 19951728
-0.022638723 0.12317834 0.94149691 19951728
-0.020073235 0.12293283 0.94111317 19951728
-0.017513409 0.12268724 0.94072419 19951728
-0.015562803 0.12258957 0.94112235 31805873
-0.013013437 0.12234341 0.94072407 31805873
-0.011070117 0.12224559 0.94111603 31805873
-0.0097278208 0.12229604 0.94230121 31805873
-0.008385554 0.12234656 0.94348651 31805873
-0.0070432276 0.12239701 0.94467193 31805873
-0.0057006329 0.12244753 0.94585711 31805873
-0.0049507171 0.12264665 0.94784397 32388726
-0.0041976124 0.122846 0.94983357 32388726
-0.066359147 0.12489221 0.91466087 19627807
-0.063623965 0.12499509 0.91707593 19627807
-0.032413453 0.12357459 0.92477018 22931785
-0.031068072 0.12362509 0.92595822 24874799
-0.030341804 0.12382539 0.92792398 24874799
-0.028994679 0.12387607 0.92911333 24874799
-0.027648047 0.12392666 0.93030256 24874799
-0.026915953 0.12412716 0.93227357 24874799
-0.02556771 0.12417793 0.93346411 19951728
-0.024219513 0.12422854 0.93465465 19951728
-0.022261128 0.12412933 0.93505961 24874799
-0.020914271 0.12417976 0.93624896 24874799
-0.019567609 0.12423048 0.93743807 24874799
-0.017615244 0.124131 0.93783766 24874799
-0.015665695 0.12403137 0.93823463 31805873
-0.014321819 0.12408198 0.93942136 31805873
-0.018317968 0.12571916 0.9357453 24874799
-0.016368642 0.12561762 0.93614227 31805873
-0.017675549 0.12735403 0.93484086 24874799
0.0069925338 0.14059868 0.99309057 23773826
0.0066065937 0.14074403 0.98068851 23773826
0.0062770098 0.14129207 0.98436743 23773826
0.0065217465 0.14167485 0.98723 23773826
-0.14189313 0.14887545 0.93276173 17749526
-0.13566141 0.14778841 0.92900294 17749526
0.0060744733 0.14273608 0.98139137 23773826
-0.13145109 0.14911771 0.92726964 17749526
-0.12593459 0.14818069 0.92420322 17749526
-0.13277198 0.15137941 0.92858976 17749526
-0.12725298 0.15043071 0.92552668 17749526
-0.12857093 0.15268868 0.92684978 17749526
-0.12374349 0.15189669 0.92449945 17749526
-0.1292107 0.15478328 0.92744857 17749526
-0.12438212 0.15398148 0.92510027 17749526
-0.012408301 0.16778395 1.0486217 27854309
-0.12882672 0.16524416 0.9322806 21182423
-0.12946336 0.16736069 0.93288046 21182423
-0.13009988 0.16948122 0.9334802 21182423
-0.016216591 0.17977989 1.0469348 18656300
-0.015431091 0.18089932 1.0421834 18656300
-0.018941328 0.18271536 1.0509713 27854309
-0.021662965 0.19440639 1.0475948 18656300
-0.019760117 0.19506189 1.0411947 18656300
-0.24025522 0.22240296 1.0376568 18721033
-0.2365347 0.22184592 1.0369833 18721033
-0.017620578 0.19500548 1.0310473 18656300
-0.018956944 0.19611666 1.0364649 18656300
-0.2452632 0.22445497 1.0330491 18721033
-0.24289577 0.22430974 1.0338204 18721033
-0.24053125 0.22416449 1.0345888 18721033
-0.23816989 0.22401896 1.0353549 18721033
-0.23581158 0.22387347 1.036118 18721033
-0.23006995 0.22268388 1.033272 18721033
-0.13183846 0.19545749 0.94586033 18980221
-0.017353937 0.19624868 1.0271649 18656300
-0.019261733 0.19758239 1.0333965 18656300
-0.24415867 0.22579202 1.0285628 18721033
-0.2424805 0.2258552 1.030045 18721033
-0.2394359 0.22549722 1.0300949 18721033
-0.23844229 0.22577086 1.0322917 18721033
-0.23608543 0.22562322 1.0330536 18721033
-0.23373146 0.22547558 1.0338132 18721033
-0.2286716 0.22448465 1.0316851 18721033
-0.018999293 0.19882545 1.0295105 18656300
-0.24845873 0.22762471 1.0232625 28567431
-0.24678223 0.22768772 1.0247431 23838559
-0.24441747 0.22753844 1.0255117 23838559
-0.24137039 0.22717667 1.0255649 23838559
-0.23901324 0.22702712 1.0263267 18721033
-0.23734246 0.22708985 1.0278022 18721033
-0.23567156 0.22715282 1.0292778 18721033
-0.23264073 0.22679031 1.0293164 18721033
-0.23097272 0.22685301 1.0307894 18721033
-0.22659649 0.22606477 1.0293779 32582925
-0.22155623 0.22506338 1.0272334 32582925
-0.10985775 0.19496292 0.93592829 29992325
-0.02553992 0.20456472 1.0459983 18850755
-0.0759698 0.22767925 1.1399641 26947535
-0.076530531 0.22861102 1.1447453 26947535
-0.24801557 0.22915149 1.0195131 23838559
-0.24427174 0.22857162 1.0188627 23838559
-0.24260403 0.22863436 1.0203352 23838559
-0.24024843 0.22848278 1.0210962 18721033
-0.23721023 0.22811654 1.0211418 18721033
-0.23554663 0.22817925 1.0226104 18721033
-0.23388319 0.22824177 1.0240793 30769633
-0.23221986 0.22830436 1.0255485 30769633
-0.22987641 0.22815225 1.026299 30769633
-0.22821452 0.22821474 1.0277665 18721033
-0.22452097 0.22763312 1.027071 32582925
-0.030524716 0.2085084 1.0533037 18850755
-0.25124979 0.22834858 1.0006492 23255706
-0.24889426 0.22819498 1.0014102 23255706
-0.24794082 0.22847298 1.0035715 20340382
-0.24907766 0.22939885 1.0078421 20340382
-0.24811386 0.22967717 1.0100119 20340382
-0.24714647 0.22995585 1.0121844 20340382
-0.24617676 0.23023444 1.01436 23838559
-0.24381994 0.23008081 1.0151227 23838559
-0.23442228 0.22946566 1.018146 23838559
-0.23276494 0.22952783 1.0196095 30769633
-0.026382998 0.2082299 1.0436101 18850755
-0.25239933 0.22977379 0.99549681 23255706
-0.25004548 0.22961819 0.99625701 23255706
-0.24699251 0.22924474 0.99631602 30186524
-0.24534692 0.22930661 0.99776894 30186524
-0.24440072 0.22958621 0.99992317 30186524
-0.24484684 0.23030192 1.0034845 20340382
-0.24389173 0.23058188 1.0056465 20340382
-0.24293382 0.23086214 1.0078111 20340382
-0.24266599 0.23136044 1.0106847 20340382
-0.24031664 0.2312046 1.0114405 23838559
-0.23727988 0.23083055 1.0114851 23838559
-0.23094909 0.2305803 1.0144386 30769633
-0.22929893 0.23064244 1.0158956 30769633
-0.2276489 0.23070443 1.0173528 30769633
-0.22531728 0.23054805 1.0180929 30769633
-0.22298892 0.23039144 1.0188305 30769633
-0.22066347 0.23023468 1.0195656 30769633
-0.21766363 0.22985917 1.0195773 30769633
-0.21399461 0.2292648 1.0188618 26753080
-0.21033432 0.22867009 1.0181384 26753080
-0.021989003 0.20718896 1.0301871 18656300
-0.025017902 0.2090281 1.0380609 18656300
-0.030261055 0.21176058 1.049253 18850755
-0.25588661 0.23134542 0.98959965 33036312
-0.25423968 0.2314074 0.991054 30186524
-0.25117922 0.23103017 0.99112004 30186524
-0.24812455 0.23065284 0.99118036 30186524
-0.24648343 0.23071453 0.99262947 30186524
-0.2441401 0.23055658 0.99338049 30186524
-0.24179964 0.23039842 0.99412888 30186524
-0.24086086 0.23067984 0.99627656 30186524
-0.24061684 0.23118126 0.99912852 20340382
-0.23967074 0.2314629 1.0012825 20340382
-0.23872121 0.23174468 1.0034392 20340382
-0.23846255 0.23224664 1.0063045 20340382
-0.23612209 0.2320886 1.0070529 20340382
-0.22911875 0.23161352 1.0092819 27271200
-0.22679029 0.23145497 1.0100198 27271200
-0.22514899 0.23151672 1.0114689 27271200
-0.22487374 0.23201934 1.0143487 30769633
-0.22254829 0.23186067 1.015084 30769633
-0.22022562 0.23170191 1.0158165 30769633
-0.21722777 0.23132229 1.0158272 30769633
-0.2149124 0.23116332 1.0165529 30769633
-0.21192504 0.23078343 1.0165546 26753080
-0.20826946 0.2301825 1.0158277 26753080
-0.20327716 0.22913975 1.0136435 26753080
-0.14413057 0.21192124 0.96172136 32842113
-0.021154299 0.20817778 1.0254903 33036312
-0.023638204 0.20980722 1.0325258 18656300
-0.027784333 0.21211222 1.0420482 18850755
-0.25393486 0.23236936 0.98455161 30186524
-0.25158542 0.23220956 0.98530787 30186524
-0.25065541 0.23249263 0.98744732 30186524
-0.24760245 0.2321113 0.98750681 30186524
-0.2452607 0.23195124 0.98825651 30186524
-0.24362551 0.23201275 0.9897005 30186524
-0.24128808 0.23185253 0.99044603 30186524
-0.24035512 0.23213568 0.99258846 16907741
