# .PCD v0.7 - Point Cloud Data file format
VERSION 0.7
FIELDS x y z rgba
SIZE 4 4 4 4
TYPE F F F U
COUNT 1 1 1 1
WIDTH 948
HEIGHT 1
VIEWPOINT 0 0 0 1 0 0 0
POINTS 948
DATA ascii
-0.10783086 -0.13356447 0.97861981 23773826
-0.11333873 -0.13143961 0.97581095 23773826
-0.11418469 -0.13193825 0.97766399 23773826
-0.11302436 -0.13278529 0.98176032 23773826
-0.1126918 -0.12974638 0.97716403 23773826
-0.1137097 -0.13086405 0.98161221 23773826
-0.10219932 -0.11777637 0.96323609 31352486
-0.099400707 -0.11583428 0.96425152 31352486
-0.10091916 -0.11621765 0.96535969 31352486
-0.10194293 -0.11943936 0.97842711 18721033
-0.10212874 -0.120079 0.98102701 18721033
-0.099191725 -0.11336073 0.96222854 31352486
-0.098771028 -0.11414915 0.96561599 31352486
-0.1002879 -0.11453213 0.96672291 31352486
-0.10050365 -0.11518301 0.96934313 31352486
-0.10071304 -0.1158323 0.97195882 31352486
-0.10026246 -0.11661318 0.97532445 25652107
-0.098491862 -0.11765717 0.98018956 25652107
-0.098676108 -0.11830016 0.98278701 25652107
-0.10050142 -0.11126306 0.96131617 31352486
-0.10008373 -0.11205789 0.96470392 31352486
-0.10030563 -0.11271414 0.96732754 31352486
-0.098569475 -0.11377628 0.97221476 31352486
-0.098774187 -0.11442816 0.97482574 25652107
-0.098318808 -0.11521348 0.97818607 25652107
-0.09719874 -0.11613107 0.98229206 25652107
-0.096723005 -0.11691124 0.98563737 25652107
-0.098871581 -0.11715364 0.98597461 25652107
-0.10097241 -0.11075804 0.96717566 31352486
-0.099237837 -0.11182998 0.97206098 31352486
-0.094332479 -0.090748526 0.96031374 18073447
-0.086691447 -0.090833701 0.97002304 32582925
-0.076063864 -0.048708908 0.95647937 18656300
-0.076975144 -0.049295709 0.95835686 18656300
-0.079172783 -0.045861509 0.95328611 18656300
-0.081951179 -0.045845851 0.95288986 18656300
-0.026601532 -0.038673576 0.9488107 16777216
-0.085069858 -0.039304417 0.94426274 24551134
-0.08539106 -0.040110219 0.94691837 24551134
-0.035908028 -0.033397567 0.93682581 31481952
-0.038277321 -0.039095212 0.95549482 28049311
-0.040963255 -0.039044861 0.95503473 28049311
-0.083854742 -0.03785456 0.94640368 24551134
-0.086027481 -0.038038936 0.94677937 24551134
-0.089443058 -0.037808616 0.94564182 24551134
-0.027945137 -0.040176656 0.96668106 25133987
-0.030012766 -0.040332586 0.9669804 25133987
-0.032083504 -0.040489297 0.96728218 28049311
-0.043994524 -0.039835405 0.96388 28049311
-0.084809206 -0.036593948 0.94891614 24551134
-0.088221639 -0.036357161 0.94777822 24551134
-0.091643587 -0.036122806 0.94664711 24551134
-0.034632839 -0.028315276 0.93345618 31481952
-0.024422342 -0.039721861 0.97193885 25133987
-0.026480524 -0.039873514 0.97223192 25133987
-0.029134972 -0.0398077 0.97175145 25133987
-0.044611461 -0.037827104 0.96370459 28049311
-0.044905864 -0.038637482 0.96633697 28049311
-0.083590768 -0.035156474 0.95105052 24551134
-0.085760407 -0.035336271 0.95142514 24551134
-0.091040403 -0.034461338 0.94802535 24551134
-0.034650736 -0.026486013 0.93406469 31481952
-0.022669347 -0.038626853 0.9748562 25133987
-0.024131218 -0.038995948 0.97592306 25133987
-0.027372712 -0.038704682 0.97466397 25133987
-0.042518653 -0.034021135 0.95792854 28049311
-0.042830542 -0.03668924 0.96661341 28049311
-0.043120213 -0.037502147 0.96924108 28049311
-0.083918937 -0.034117054 0.95431107 24551134
-0.032141291 -0.026621152 0.94128186 31481952
-0.038882382 -0.024977092 0.93533307 31481952
-0.022110285 -0.035242081 0.9701885 25133987
-0.022401417 -0.036059204 0.97281611 25133987
-0.022096364 -0.037097532 0.97621608 25133987
-0.024148336 -0.037243828 0.97650588 25133987
-0.030421851 -0.025487399 0.94423908 31481952
-0.030025141 -0.029497726 0.95722598 28049311
-0.023301294 -0.033031497 0.96921653 25133987
-0.023007093 -0.034078218 0.97262257 25133987
-0.023883602 -0.034673225 0.97446924 25133987
-0.034223437 -0.031678785 0.96391034 28049311
-0.028123064 -0.024594322 0.94797617 28049311
-0.032440662 -0.028689031 0.96077758 28049311
-0.0034129862 -0.13140909 0.8964597 27336189
-0.013985531 -0.13070573 0.88964188 23903292
-0.0085837264 -0.13016184 0.89339936 23903292
-0.0051259864 -0.12974201 0.89479935 23903292
-0.012900585 -0.12868474 0.88860708 23903292
-0.0094542969 -0.1282611 0.89001292 23903292
-0.0046861675 -0.12774569 0.89297366 23903292
-0.026491692 -0.12806956 0.87534606 17490594
-0.016392151 -0.12698957 0.88210213 23903292
-0.040784605 -0.12774311 0.8637377 20340382
-0.038062043 -0.12736964 0.86440456 20340382
-0.034032814 -0.12689912 0.86663401 20340382
-0.028686943 -0.12632988 0.87041998 17490594
-0.023321209 -0.12575662 0.87419337 17490594
-0.041814178 -0.1261286 0.86286026 20340382
-0.041037887 -0.12589985 0.8611747 20340382
-0.037016928 -0.12542298 0.86340797 20340382
-0.031680442 -0.12484331 0.86719739 20340382
-0.025671197 -0.12420942 0.87175542 17490594
-0.038050309 -0.1238072 0.86253226 22089197
-0.032718055 -0.12321629 0.86632222 20340382
-0.025408627 -0.12246445 0.8724429 17490594
-0.037785374 -0.1220879 0.86322308 22089197
-0.032454103 -0.12148518 0.86701143 20340382
-0.023843179 -0.1206071 0.87469196 17490594
-0.032191083 -0.11975015 0.86770022 20340382
-0.025537884 -0.11901915 0.87303603 17490594
-0.037398189 -0.11880339 0.86707854 22089197
-0.033877283 -0.11818466 0.86604327 20340382
-0.029184325 -0.11761332 0.86903787 17490594
-0.038290516 -0.11702591 0.86372858 22089197
-0.036859676 -0.1167465 0.86282343 20340382
-0.03477826 -0.11640694 0.86269855 20340382
-0.10550625 -0.13211551 0.97387165 18721033
-0.10558942 -0.13193668 0.97034806 18721033
-0.03996893 -0.11547913 0.86207074 22089197
-0.039838612 -0.11532357 0.85960418 20340382
-0.038414329 -0.11504551 0.85870314 20340382
-0.11716297 -0.13228069 0.9761228 23773826
-0.10271234 -0.13008818 0.97889543 18721033
-0.10331987 -0.12995486 0.97451329 18721033
-0.10394063 -0.12982415 0.97013944 18721033
-0.041645601 -0.11394005 0.86041337 20340382
-0.042165808 -0.11385266 0.85716736 20340382
-0.04204604 -0.11370334 0.85470849 20340382
-0.11137257 -0.12966415 0.97925013 23773826
-0.099923588 -0.1280378 0.98391807 18721033
-0.10166539 -0.12782916 0.97429895 18721033
-0.10175098 -0.12766296 0.9707793 18721033
-0.04202842 -0.11227829 0.86032122 20340382
-0.042547271 -0.11219675 0.85707587 20340382
-0.043075971 -0.11211713 0.8538366 16907741
-0.099272847 -0.12614477 0.98552531 18721033
-0.098394476 -0.12556051 0.97663349 18721033
-0.098027922 -0.12519413 0.9704473 18721033
-0.04176566 -0.11054944 0.86101151 20340382
-0.042281501 -0.1104733 0.85776532 20340382
-0.096003465 -0.12384625 0.9878552 22153930
-0.095520444 -0.12363803 0.98516864 25652107
-0.09396892 -0.12333503 0.98418695 25652107
-0.095825352 -0.12301423 0.97107559 25652107
-0.094837867 -0.12276443 0.96926033 25652107
-0.094945483 -0.12261461 0.96575689 25652107
-0.10896777 -0.12382343 0.98141247 18721033
-0.10112276 -0.12278552 0.98715925 18721033
-0.098508477 -0.12238477 0.98788518 22153930
-0.095353693 -0.12193336 0.98945916 22153930
-0.093795493 -0.121629 0.98847336 22153930
-0.092237346 -0.12132471 0.98748738 22153930
-0.093373232 -0.12127195 0.98225564 25652107
-0.092363857 -0.12101986 0.98042691 25652107
-0.09461052 -0.1210742 0.97351778 25652107
-0.093073957 -0.12077402 0.97254539 25652107
-0.094264485 -0.12073197 0.96734828 25652107
-0.03669057 -0.11129933 0.97019076 26817813
-0.033930793 -0.1108702 0.97082454 26817813
-0.10780001 -0.12188241 0.98388231 18721033
-0.099418901 -0.1207746 0.99047631 22153930
-0.097862482 -0.12047058 0.98949111 22153930
-0.095239006 -0.12006404 0.99021083 22153930
-0.093679331 -0.11975931 0.9892236 22153930
-0.091582768 -0.11940279 0.98908675 22153930
-0.090021268 -0.11909777 0.98809856 22153930
-0.087919787 -0.11874026 0.98795867 22153930
-0.08960674 -0.11875229 0.98188794 25652107
-0.090770379 -0.118715 0.97667545 25652107
-0.092495397 -0.11873444 0.97062886 25652107
-0.093146913 -0.11865009 0.96628243 25652107
-0.034184448 -0.10914428 0.97418183 30316246
-0.031417131 -0.10870966 0.9748103 30316246
-0.093563922 -0.11788584 0.9899739 22153930
-0.092002437 -0.11758088 0.98898578 22153930
-0.087260783 -0.11680732 0.98955327 22153930
-0.08894182 -0.11683033 0.98348123 25652107
-0.090642653 -0.11685724 0.97742152 25652107
-0.091818847 -0.11683247 0.97221917 25652107
-0.093011677 -0.11681094 0.96702719 22802319
-0.031682618 -0.10696989 0.97817189 30316246
-0.029495539 -0.10659365 0.97797734 26817813
-0.089785732 -0.11534173 0.98959464 22153930
-0.088221014 -0.11503603 0.98860431 22153930
-0.089973517 -0.11493852 0.97901297 25652107
-0.090600118 -0.11486533 0.9746536 25652107
-0.091785647 -0.11485253 0.96945906 25652107
-0.091892883 -0.11472687 0.96596014 22802319
-0.09310814 -0.11471988 0.96078449 22802319
-0.092137136 -0.11448129 0.95898098 22802319
-0.028751759 -0.10459379 0.97950864 30316246
-0.08966931 -0.11345789 0.9903422 22153930
-0.088641629 -0.11321026 0.98850322 22153930
-0.089306124 -0.11301204 0.98060381 25652107
-0.089927554 -0.11294603 0.9762429 25652107
-0.09110757 -0.11294216 0.97104686 25652107
-0.091757156 -0.11288157 0.96670365 22802319
-0.091322742 -0.11270305 0.96405166 22802319
-0.091185488 -0.11085746 0.96479404 31352486
-0.13975795 -0.11416584 0.97664672 27206467
-0.13764721 -0.11199179 0.9773311 27206467
-0.13512532 -0.11157274 0.97810841 27206467
-0.1325967 -0.11115246 0.97888172 27206467
-0.094376065 -0.10486411 0.99266845 17425861
-0.094917558 -0.1027451 0.98196709 17425861
-0.094439767 -0.10258227 0.97929215 32582925
-0.094507925 -0.10249126 0.97577661 32582925
-0.042230472 -0.093288571 0.97709733 23385172
-0.095870644 -0.1010047 0.98101974 17425861
-0.095930867 -0.10091827 0.97750026 32582925
-0.095462047 -0.10076118 0.97483188 32582925
-0.086556651 -0.098727144 0.95852447 18073447
-0.098428346 -0.099489495 0.97753191 17425861
-0.098493829 -0.099410102 0.97401708 32582925
-0.096953914 -0.099109344 0.97304267 32582925
-0.095953993 -0.098883331 0.97122461 32582925
-0.08321923 -0.096334539 0.96079546 18073447
-0.099378251 -0.097762622 0.97658551 17425861
-0.098907784 -0.097613283 0.97391742 32582925
-0.096291803 -0.097159721 0.97463238 32582925
-0.094748542 -0.09685833 0.97365588 32582925
-0.083209164 -0.09440355 0.95805883 18073447
-0.085024692 -0.094585866 0.95209718 18073447
-0.049432248 -0.088495314 0.96512699 19886995
-0.10086172 -0.096117184 0.9747923 17425861
-0.099321693 -0.095816448 0.97381794 32582925
-0.096169062 -0.095280722 0.97537696 32582925
-0.087001994 -0.093410209 0.96602255 18073447
-0.08392211 -0.092808634 0.96407366 18073447
-0.10834069 -0.065550901 0.98987246 27789320
-0.10677754 -0.065245628 0.98888344 27789320
-0.1077249 -0.063505456 0.99147117 27789320
-0.10563889 -0.063088387 0.99132878 27789320
-0.1056347 -0.063116439 0.98779321 27789320
-0.10761801 -0.061597887 0.9886812 27789320
-0.17940864 0.23763278 1.0386733 22218663
-0.16617595 0.24021737 1.0303 25716840
-0.16495557 0.24013153 1.0284107 25716840
-0.16330306 0.24045426 1.0273652 25716840
-0.17987938 0.23825267 1.034116 22218663
-0.17781027 0.23898306 1.0339233 22218663
-0.17616113 0.23930514 1.0328799 22218663
-0.17408688 0.24003655 1.0326842 22218663
-0.16548704 0.24073748 1.0238923 25716840
-0.16384123 0.2410589 1.0228508 25716840
-0.15966977 0.24252617 1.0224447 25716840
-0.15846215 0.24243581 1.020564 25716840
-0.15236746 0.23971115 1.0033066 32064805
-0.14999472 0.23723827 0.99175483 32064805
-0.14520714 0.23588955 0.98090851 28632164
-0.14454536 0.23536627 0.97825623 28632164
-0.17871891 0.23917504 1.0285298 22218663
-0.17501107 0.24022754 1.0272998 22218663
-0.171726 0.24086909 1.0252211 18786022
-0.17051466 0.24077746 1.0233382 18786022
-0.16887373 0.24109785 1.0222999 25716840
-0.16723301 0.24141845 1.0212617 25716840
-0.16559209 0.24173892 1.0202233 25716840
-0.16351344 0.24247316 1.0200243 25716840
-0.16143139 0.2432081 1.0198234 25716840
-0.16022839 0.24311475 1.0179458 25716840
-0.1585858 0.24343556 1.0169065 25716840
-0.15738785 0.24334134 1.0150319 25716840
-0.15208615 0.24109416 1.000514 32064805
-0.15137367 0.24057673 0.99783063 32064805
-0.15066792 0.24005803 0.9951514 32064805
-0.14835446 0.23985326 0.99145502 32064805
-0.14766535 0.23933135 0.9887861 32064805
-0.14356723 0.23849048 0.98061115 28632164
-0.1424353 0.2383832 0.97877854 28632164
-0.14130662 0.23827548 0.97694808 28632164
-0.17715566 0.24049021 1.0238074 22218663
-0.17509234 0.24122354 1.0236179 18786022
-0.17388381 0.24112925 1.0217373 18786022
-0.17267869 0.24103436 1.0198587 18786022
-0.17104444 0.24135357 1.0188247 18786022
-0.16941018 0.24167274 1.0177904 25716840
-0.16777603 0.24199192 1.0167564 25716840
-0.16570447 0.24272685 1.0165612 25716840
-0.16406853 0.24304639 1.0155263 25716840
-0.16243257 0.24336587 1.0144912 25716840
-0.16079666 0.24368536 1.013456 32064805
-0.15960471 0.24358791 1.011586 32064805
-0.1518095 0.24246818 0.99772567 32064805
-0.15064564 0.24236518 0.99587333 32064805
-0.14948516 0.24226156 0.99402314 32064805
-0.1478675 0.24257757 0.99299943 32064805
-0.14648734 0.24152584 0.98766243 32064805
-0.1448763 0.24184057 0.98664296 28632164
-0.14306043 0.24120435 0.98214608 28632164
-0.17440893 0.24169216 1.017223 18786022
-0.17321153 0.24159363 1.01535 18786022
-0.17158394 0.24191155 1.01432 18786022
-0.16995628 0.24222951 1.0132903 18786022
-0.16789173 0.24296506 1.0130993 18786022
-0.16626249 0.24328323 1.0120683 18786022
-0.16463317 0.24360147 1.0110373 18786022
-0.16300389 0.2439197 1.0100064 32064805
-0.16137463 0.24423799 1.0089755 32064805
-0.15974531 0.24455619 1.0079447 32064805
-0.14714633 0.24435857 0.99104792 32064805
-0.14484431 0.24414349 0.98736006 28632164
-0.17375417 0.24213502 1.0108504 18786022
-0.17213304 0.24245149 1.0098251 18786022
-0.17007558 0.24318779 1.0096381 18786022
-0.16801475 0.24392453 1.0094494 18786022
-0.16639052 0.24424192 1.0084213 18786022
-0.16476622 0.24455911 1.0073936 18786022
-0.16314189 0.24487638 1.0063659 32064805
-0.1722559 0.24339516 1.0061775 18786022
-0.16902383 0.24402648 1.0041326 18786022
-0.16579169 0.24465767 1.0020872 18786022
-0.16417556 0.24497327 1.001065 18786022
-0.025577039 -0.14908701 0.84293193 18591567
0.00047326088 -0.14764866 0.86853224 16777216
0.0015371889 -0.14310929 0.84227931 16972474
-0.0031773746 -0.14417091 0.8446511 16972474
-0.0033930987 -0.14371163 0.84172195 16972474
-0.0082006156 -0.14747551 0.87230802 16777216
-0.0051921606 -0.14224279 0.84382313 16972474
-0.0092436224 -0.14309461 0.84545231 16972474
-0.03193374 -0.14407413 0.84418893 18591567
-0.037146986 -0.14537722 0.8474409 18591567
-0.040476263 -0.14601684 0.84838635 18591567
-0.017090857 -0.14222325 0.85786641 20405115
-0.01983878 -0.14264461 0.8579967 20405115
-0.033290386 -0.14195639 0.84260267 18591567
-0.033408478 -0.13938506 0.83946806 18591567
-0.076009765 -0.14913654 0.87097889 18008714
-0.087225705 -0.14895183 0.86041123 18008714
-0.089225069 -0.14915586 0.85988468 18008714
-0.080939606 -0.14847505 0.87411875 18008714
0.012990519 -0.13430065 0.88499832 30834366
0.0050737113 -0.13763306 0.90839499 27336189
0.0088777393 -0.13527121 0.89843446 27336189
0.0094215125 -0.13455278 0.89488322 27336189
0.0099567622 -0.13383421 0.89132392 30834366
0.011148557 -0.13288403 0.88702881 30834366
-0.029159918 -0.12834057 0.82737684 24939532
0.009833917 -0.13343763 0.9003796 27336189
0.0089149326 -0.13268963 0.89545321 27336189
0.0074494928 -0.13266554 0.89407271 27336189
0.0093085915 -0.13147476 0.8890571 30834366
0.0098263174 -0.13075042 0.88548428 30834366
-0.0055838376 -0.13293934 0.88449907 27336189
-0.0076997131 -0.13314879 0.88385898 27336189
-0.034248814 -0.12758139 0.83042091 24939532
0.0058615357 -0.13226131 0.90173858 27336189
0.0049454719 -0.13150784 0.89681786 27336189
0.0041487068 -0.13124862 0.89471495 27336189
0.004674986 -0.13051891 0.8911534 30834366
0.0047219694 -0.12830463 0.87902582 30834366
-0.033888295 -0.12594584 0.83317918 24939532
-0.039061487 -0.12733719 0.83641917 24939532
-0.087894425 -0.14277625 0.87966859 18008714
0.0032341629 -0.13062209 0.90165579 27336189
0.002444163 -0.13036111 0.89955986 27336189
0.0015180558 -0.12960204 0.89463305 27336189
0.0033618957 -0.1283927 0.88961351 30834366
0.0038724393 -0.12765735 0.88604015 30834366
0.0070066899 -0.12597328 0.87953341 30834366
0.0068373233 -0.12547466 0.87667108 30834366
0.004696399 -0.12568736 0.87600529 30834366
-0.04386723 -0.12711868 0.84240961 28437965
-0.050846055 -0.12923522 0.84799695 28437965
0.0027312487 -0.12877175 0.90222198 27336189
0.0026053041 -0.12827027 0.89940304 27336189
0.0011471957 -0.12824617 0.89802885 27336189
0.0023369044 -0.12726671 0.89374834 27336189
-0.050738677 -0.12714159 0.84779 28437965
-0.073938251 -0.13450223 0.86779237 21441355
0.0035595447 -0.12644035 0.9013443 27336189
0.0034302026 -0.12593496 0.89852357 27336189
0.0019689053 -0.12591091 0.89714682 27336189
0.0024922341 -0.12516475 0.89359182 27336189
0.0043269247 -0.123937 0.88857383 30834366
0.0049166232 -0.12334987 0.89692372 27336189
-0.033401638 -0.12221172 0.85812265 20340382
-0.018922195 -0.11535437 0.83401245 30769633
0.0077268332 -0.12026522 0.89388281 30834366
-0.038073242 -0.12257362 0.86689603 22089197
-0.038904235 -0.12230472 0.86476564 22089197
-0.036000267 -0.12056575 0.85807067 20340382
-0.026895508 -0.1111468 0.82731068 30769633
-0.029630661 -0.11161599 0.8274262 30769633
-0.035414115 -0.11332024 0.83140057 30186524
-0.043453306 -0.12061341 0.87332368 22089197
-0.02619113 -0.10872915 0.82636362 30769633
-0.028927818 -0.10920192 0.82647508 30769633
-0.032879531 -0.11017246 0.82813263 30186524
-0.037429035 -0.11139203 0.83057231 30186524
-0.081229165 -0.12568697 0.86732525 29603671
-0.081444755 -0.12516558 0.86443138 29603671
-0.081068933 -0.124395 0.86074972 29603671
-0.075587481 -0.1208607 0.84708172 26105494
-0.055446684 -0.10980063 0.80686921 23255706
-0.056363955 -0.10952661 0.8046599 23255706
-0.054076225 -0.12460598 0.89526385 22089197
-0.051725 -0.12308028 0.88941407 22089197
-0.048139393 -0.12105357 0.88203901 22089197
-0.044577077 -0.11902641 0.87464219 22089197
-0.043735981 -0.11747586 0.86736959 22089197
-0.078942716 -0.12211044 0.86108035 29603671
-0.056554899 -0.10813905 0.80824471 23255706
-0.08043626 -0.11243873 0.80993825 32453459
-0.081339657 -0.11216313 0.80774289 32453459
-0.047384307 -0.11872824 0.88108832 22089197
-0.044452354 -0.11693855 0.8744486 22089197
-0.043408141 -0.11590542 0.87005979 22089197
-0.042375445 -0.11487233 0.86566061 22089197
-0.037998721 -0.10995577 0.84426445 16907741
-0.034858733 -0.10738189 0.83379132 30186524
-0.075987101 -0.12009486 0.86354017 29603671
-0.078011185 -0.12032401 0.86297572 29603671
-0.07644549 -0.11903708 0.8577351 29603671
-0.073357582 -0.11646235 0.84721321 29603671
-0.072428644 -0.11542734 0.84271568 29603671
-0.057662264 -0.10648105 0.80961889 23255706
-0.056232244 -0.1051918 0.80425048 23255706
-0.07864818 -0.10954869 0.80730665 32453459
-0.0068298429 -0.1183731 0.92435211 25069254
-0.0075939149 -0.11809603 0.92228991 25069254
-0.014347747 -0.12009984 0.92666322 25069254
-0.042458624 -0.11408462 0.87199169 22089197
-0.041422144 -0.11304418 0.8675999 22089197
-0.036907628 -0.10994589 0.85574806 20340382
-0.03842847 -0.10674813 0.83820963 16907741
-0.048093617 -0.10949723 0.84386635 16907741
-0.065185636 -0.11476781 0.85594618 29603671
-0.070842609 -0.11652528 0.86001086 29603671
-0.075745448 -0.11670893 0.85673326 29603671
-0.072930589 -0.11358258 0.84328032 29603671
-0.082361862 -0.10840382 0.80889326 32453459
-0.085554346 -0.10914447 0.80991173 32453459
-0.0013159961 -0.11425705 0.91850048 25069254
-0.038818836 -0.10991206 0.86438864 20340382
-0.035561696 -0.10730368 0.8540467 20340382
-0.039134234 -0.10751116 0.85202175 16907741
-0.040611476 -0.10748668 0.85062987 16907741
-0.06893383 -0.11367547 0.85747063 29603671
-0.071574375 -0.11416438 0.85766482 29603671
-0.072247118 -0.11122496 0.84227914 29603671
-0.083780602 -0.10624308 0.80727261 32453459
-0.035966411 -0.10328469 0.85444009 20340382
-0.018799722 -0.11500766 0.93723458 23320439
-0.016100556 -0.10478934 0.8993395 24486145
-0.037686959 -0.096501432 0.84022808 23838559
0.0024020523 -0.10793499 0.94052297 28567431
0.0016491264 -0.10764728 0.93847793 28567431
-0.021769211 -0.11221778 0.94045895 23320439
-0.02582857 -0.1132523 0.9419778 23320439
-0.027484015 -0.10799333 0.91503531 19239409
-0.018703029 -0.10318162 0.89926225 24486145
-0.019677758 -0.10233952 0.89433628 24486145
-0.038270935 -0.095975474 0.84742677 23838559
-0.037318468 -0.094889827 0.8429805 23838559
-5.7950616e-05 -0.10747126 0.94590157 28567431
-0.0021577328 -0.10771389 0.94525784 28567431
-0.026309475 -0.10426703 0.90781754 19239409
-0.033545494 -0.10664239 0.91301364 19239409
-0.039054558 -0.093524128 0.84508282 23838559
-0.036896303 -0.091896661 0.83910692 23838559
-0.038396358 -0.09187191 0.83769333 23838559
-0.0081869513 -0.10693236 0.9459278 28567431
-0.026060775 -0.10998604 0.94509298 23320439
-0.031434536 -0.11157154 0.94803303 23320439
-0.041419104 -0.11503416 0.95596534 23320439
-0.044796154 -0.094611041 0.85541153 27271200
-0.037702337 -0.089426793 0.836752 23838559
-0.014642075 -0.10868613 0.95818394 30899099
-0.015363023 -0.10839341 0.95617193 30899099
-0.014065877 -0.10729145 0.95206279 28567431
-0.025146335 -0.10823222 0.94695371 23320439
-0.030525655 -0.10982857 0.94988221 23320439
-0.036549762 -0.11169523 0.95353609 23320439
-0.089324474 -0.13104576 0.9997738 22153930
-0.091845065 -0.13044265 0.99473327 22153930
-0.076224074 -0.12283654 0.97213238 22802319
-0.028109536 -0.097792543 0.89484704 19239409
-0.016413063 -0.091526039 0.87521261 22737586
-0.046033517 -0.094408095 0.86329722 27271200
-0.046888769 -0.094113149 0.86115873 27271200
-0.0074942857 -0.10618878 0.96192139 30899099
-0.012977406 -0.10779444 0.96474606 30899099
-0.016406193 -0.1085859 0.96551055 30899099
-0.018471316 -0.10883463 0.96489662 30899099
-0.020533487 -0.10908326 0.96428543 30899099
-0.021243349 -0.10878889 0.96228451 30899099
-0.017917022 -0.10686513 0.95609623 30899099
-0.015416786 -0.10407966 0.9451341 28567431
-0.027623162 -0.10727048 0.94961435 23320439
-0.033658087 -0.10914973 0.95325071 23320439
-0.041657761 -0.11184452 0.95903116 23320439
-0.087141559 -0.12833749 0.99741453 22153930
-0.091694236 -0.12967579 0.99978358 22153930
-0.091662034 -0.12911102 0.99715072 22153930
-0.078139454 -0.1188754 0.96061593 22802319
-0.07818909 -0.11830923 0.95790523 22802319
-0.029885232 -0.096492127 0.89687443 19239409
-0.02243416 -0.092657603 0.88525003 22737586
-0.016291827 -0.08936692 0.87505603 22737586
-0.044090196 -0.091452844 0.86084962 27271200
-0.016178206 -0.10711809 0.96804816 30899099
-0.019599602 -0.10791516 0.96881646 30899099
-0.021658584 -0.10816582 0.96820742 30899099
-0.023039088 -0.10814305 0.96690673 30899099
-0.024419084 -0.10812032 0.96560627 30899099
-0.021763191 -0.10645718 0.96012419 30899099
-0.018453285 -0.10452026 0.95392758 23320439
-0.015163735 -0.102583 0.94771165 28567431
-0.015236095 -0.10201284 0.94498199 28567431
-0.019315973 -0.10308357 0.9464609 23320439
-0.026046067 -0.10524859 0.95076567 23320439
-0.038774371 -0.10930622 0.95873398 29668404
-0.047420129 -0.11229314 0.96522611 29668404
-0.087584391 -0.12670934 0.99791282 22153930
-0.09082666 -0.12750933 0.99884981 22153930
-0.090145707 -0.1266672 0.99549955 22153930
-0.084264785 -0.12363473 0.98640233 25652107
-0.079065412 -0.12087551 0.97799379 22802319
-0.077160344 -0.1189154 0.97047335 22802319
-0.079771936 -0.11944138 0.97067434 22802319
-0.081733927 -0.11969353 0.97015625 22802319
-0.079838783 -0.11830232 0.96528822 22802319
-0.082444564 -0.11882834 0.96549433 22802319
-0.042336926 -0.10042841 0.91412348 19239409
-0.029749393 -0.094377041 0.8967073 19239409
-0.024211794 -0.091338851 0.88728607 22737586
-0.018706501 -0.088300243 0.87783515 22737586
-0.047903836 -0.090379499 0.86230117 27271200
-0.020755365 -0.10643374 0.97004503 30899099
-0.023488745 -0.10696128 0.97012895 30899099
-0.024866328 -0.10693864 0.96883124 26817813
-0.026243672 -0.10691592 0.96753329 26817813
-0.024259791 -0.10551703 0.96275371 30899099
-0.022290871 -0.10411787 0.95796031 30899099
-0.018997326 -0.10216794 0.95175534 23320439
-0.017059997 -0.10076829 0.94693202 23320439
-0.020468399 -0.10157103 0.94770998 23320439
-0.03721267 -0.10730784 0.95985752 29668404
-0.045870259 -0.11031467 0.96632713 29668404
-0.088681906 -0.12535673 0.99912399 22153930
-0.089307681 -0.12506011 0.9972046 22153930
-0.083411902 -0.12143512 0.98547333 25652107
-0.0814659 -0.12003566 0.98065835 22802319
-0.080181748 -0.11891152 0.97654921 22802319
-0.084096178 -0.1194196 0.97552019 25652107
-0.086692497 -0.1199495 0.97573346 25652107
-0.08093825 -0.1168948 0.96652836 22802319
-0.042826816 -0.098625854 0.91467518 19239409
-0.020555004 -0.10440188 0.96989161 26817813
-0.023288801 -0.10493309 0.96997303 26817813
-0.02739276 -0.10544182 0.96876365 26817813
-0.026753709 -0.10458787 0.96537966 26817813
-0.026123151 -0.10373389 0.96198779 26817813
-0.02282615 -0.10177118 0.95579356 30899099
-0.021551147 -0.10063952 0.95167965 23320439
-0.024283782 -0.10117088 0.95176262 23320439
-0.087138787 -0.12232243 0.99484891 22153930
-0.0819107 -0.11895073 0.98383003 25652107
-0.083214641 -0.11892931 0.9826017 25652107
-0.083871335 -0.11863029 0.98065418 25652107
-0.085176423 -0.11860884 0.97942454 25652107
-0.085837409 -0.1183098 0.97747308 25652107
-0.086501226 -0.11801078 0.975519 25652107
-0.082678348 -0.1157686 0.96849161 22802319
-0.018294051 -0.10211044 0.9703545 26817813
-0.020355985 -0.10236641 0.96973962 26817813
-0.022414431 -0.10262249 0.96912748 26817813
-0.025144354 -0.10315744 0.96921057 26817813
-0.027195856 -0.1034136 0.96860522 26817813
-0.027230874 -0.1028331 0.96591681 26817813
-0.027941242 -0.10253135 0.9639197 26817813
-0.027986154 -0.10195071 0.96122187 26817813
-0.024702802 -0.099975042 0.95502228 23320439
-0.081753612 -0.11991302 0.99685949 22153930
-0.079753891 -0.11733624 0.98679429 25652107
-0.080406725 -0.11703548 0.98485166 25652107
-0.081711978 -0.11701402 0.9836219 25652107
-0.084313333 -0.11755111 0.98382622 25652107
-0.084322408 -0.11697096 0.98116225 25652107
-0.086273029 -0.1172288 0.98065215 25652107
-0.086933017 -0.11692796 0.97870272 25652107
-0.086953372 -0.11634766 0.97602779 25652107
-0.083134457 -0.11409086 0.96900493 22802319
-0.083175108 -0.11351021 0.9663114 22802319
-0.01948069 -0.10004665 0.96889931 26817813
-0.021541849 -0.10030445 0.96828395 26817813
-0.024947211 -0.10112374 0.96905512 26817813
-0.027672008 -0.10166243 0.96914095 26817813
-0.028378651 -0.10135901 0.9671486 26817813
-0.030426875 -0.1016171 0.96654552 26817813
-0.031804413 -0.1015944 0.96524769 26817813
-0.080309346 -0.11917854 1.0031228 22153930
-0.08093679 -0.11887641 1.0012052 22153930
-0.081566766 -0.1185742 0.9992848 22153930
-0.081543595 -0.11799099 0.99665338 22153930
-0.08086507 -0.11479241 0.98269969 25652107
-0.084763736 -0.1158954 0.98433286 25652107
-0.087383941 -0.11526863 0.97921056 25652107
-0.087405503 -0.1146846 0.97653693 25652107
-0.086792558 -0.11381937 0.9731347 25652107
-0.088105097 -0.1137978 0.97189814 25652107
-0.087505072 -0.11293223 0.96848363 25652107
-0.088185564 -0.11262915 0.96651548 22802319
-0.090138495 -0.11288884 0.96600229 22802319
-0.054339349 -0.082839794 0.8604359 27271200
-0.019251361 -0.09858977 0.97143203 26817813
-0.019283816 -0.098001905 0.96874982 21052701
-0.024078354 -0.098803855 0.96820933 26817813
-0.028148219 -0.099911325 0.96967703 26817813
-0.030195758 -0.10017119 0.96907347 26817813
-0.03224051 -0.10043109 0.96847242 26817813
-0.083327025 -0.11750064 1.001199 22153930
-0.063718006 -0.10666595 0.96930236 16777216
-0.080020204 -0.11256351 0.98177963 25652107
-0.087886125 -0.11243389 0.97436804 25652107
-0.089835405 -0.11269542 0.97385699 25652107
-0.091782212 -0.11295703 0.97334832 25652107
-0.057261959 -0.082107812 0.86403412 27271200
-0.023211405 -0.096476652 0.96736592 26817813
-0.02862443 -0.098160177 0.97021312 30316246
-0.032010838 -0.098990746 0.97099596 26817813
-0.034720466 -0.099536978 0.97109181 26817813
-0.081801474 -0.11501128 0.99958235 22153930
-0.064768225 -0.10642823 0.97589439 16777216
-0.05957742 -0.081104845 0.86687177 27271200
-0.062239796 -0.081651889 0.86701268 27271200
-0.019438311 -0.097757272 0.98514718 21052701
-0.022862419 -0.097998187 0.98324436 21052701
-0.022194579 -0.097117417 0.97990292 21052701
-0.022346154 -0.094142057 0.9665249 26817813
-0.028429732 -0.096122764 0.97005731 30316246
-0.03181608 -0.096958853 0.97083718 30316246
-0.035194263 -0.097794987 0.97162515 30316246
-0.062615961 -0.10358617 0.97358185 16777216
-0.015797153 -0.095483057 0.9869135 21052701
-0.017856225 -0.095748298 0.98629576 21052701
-0.021278754 -0.0965892 0.98703831 21052701
-0.024696574 -0.096832015 0.98514062 21052701
-0.021363184 -0.093596734 0.97373372 21052701
-0.020722821 -0.092709966 0.97036964 21052701
-0.029576614 -0.094657831 0.97128481 30316246
-0.03429769 -0.096075647 0.97344917 30316246
-0.061120465 -0.10101762 0.97198075 16777216
-0.025849089 -0.095383428 0.98635358 21052701
-0.026536301 -0.095071144 0.98438424 21052701
-0.024519458 -0.093599744 0.9796775 21052701
-0.022589937 -0.090923071 0.96960217 21052701
-0.02464883 -0.091190137 0.96898383 21052701
-0.028043851 -0.092037059 0.96974951 30316246
-0.035439461 -0.094623573 0.97467417 30316246
-0.040808782 -0.096340753 0.97754389 23385172
-0.098035887 -0.10833815 0.9804464 17425861
-0.027023837 -0.092727177 0.9822616 21052701
-0.02636905 -0.091829598 0.97891718 21052701
-0.026396707 -0.091223665 0.97625035 21052701
-0.026430115 -0.090617649 0.97357816 21052701
-0.029151514 -0.091178305 0.97365481 21052701
-0.033874825 -0.092614301 0.97580665 30316246
-0.039251253 -0.094342284 0.97866338 23385172
-0.049287409 -0.097507313 0.98373193 23385172
-0.08828336 -0.1026173 0.97207719 32582925
-0.097215533 -0.10610323 0.97950608 17425861
-0.10611297 -0.10958985 0.98696798 30704644
-0.11308134 -0.11219998 0.99228626 30704644
-0.12128393 -0.11539517 0.99908251 24356679
-0.12631111 -0.11712892 1.0022686 24356679
-0.13069336 -0.1185705 1.0047414 24356679
-0.029541895 -0.09125603 0.98218781 21052701
-0.028891787 -0.090353064 0.9788422 21052701
-0.029593214 -0.090036869 0.97686154 21052701
-0.031637892 -0.090307765 0.97625452 27400922
-0.037691653 -0.092340142 0.97978646 23385172
-0.041056365 -0.093198478 0.98057455 23385172
-0.081748933 -0.097706132 0.96466261 18073447
-0.093227431 -0.10239043 0.97495824 32582925
-0.11162739 -0.10970207 0.99060625 30704644
-0.12171765 -0.11380003 0.99957067 24356679
-0.13300209 -0.11787838 1.00741 24356679
-0.033423647 -0.089766182 0.98082703 27400922
-0.036130086 -0.090334423 0.9809137 27400922
-0.040835589 -0.091789015 0.98307234 23385172
-0.044859499 -0.09294837 0.98455423 23385172
-0.049537241 -0.094403379 0.98673838 23385172
-0.053536952 -0.095563211 0.98824352 23385172
-0.058857515 -0.096701227 0.98850387 23385172
-0.06158635 -0.088382915 0.95033616 33101301
-0.061044678 -0.087472595 0.94689173 33101301
-0.081575081 -0.09571404 0.96446162 18073447
-0.090512812 -0.099243827 0.97186095 32582925
-0.098783523 -0.10247816 0.97856992 17425861
-0.10828431 -0.106305 0.98675734 30704644
-0.035237536 -0.088622294 0.98273009 27400922
-0.037939981 -0.089194231 0.98281842 27400922
-0.04197225 -0.090360828 0.98428875 27400922
-0.045992896 -0.091527574 0.98576981 23385172
-0.050002024 -0.092694528 0.98726159 23385172
-0.053999484 -0.093861602 0.98876435 23385172
-0.056661531 -0.094434209 0.98889059 23385172
-0.051201105 -0.081577912 0.93870693 26753080
-0.053872034 -0.0821504 0.93882507 26753080
-0.070527136 -0.089273863 0.95474881 18073447
-0.090335682 -0.097270101 0.97165304 32582925
-0.097970843 -0.10022676 0.97763222 17425861
-0.10620725 -0.10348172 0.9843623 17425861
-0.03704913 -0.087485738 0.98463124 27400922
-0.04444243 -0.089534454 0.98687929 23385172
-0.047790974 -0.09040945 0.9876731 23385172
-0.050466508 -0.090985559 0.98778468 23385172
-0.05379951 -0.091860905 0.9885934 23385172
-0.045300826 -0.07680738 0.93210143 26753080
-0.053716764 -0.080079466 0.93865103 26753080
-0.083766282 -0.092917554 0.96693903 18073447
-0.091424242 -0.095892057 0.97288686 32582925
-0.097790748 -0.098267712 0.97741824 17425861
-0.10287537 -0.10004443 0.98052555 17425861
-0.03685008 -0.085453853 0.98447651 27400922
-0.04357639 -0.087214507 0.98603088 23385172
-0.048276231 -0.088072754 0.9855482 23385172
-0.050950691 -0.08865241 0.98565859 23385172
-0.050976083 -0.088028252 0.98300427 23385172
-0.049070209 -0.085876413 0.97559303 23385172
-0.045656338 -0.075639948 0.93540519 26753080
-0.060562342 -0.081320442 0.94635075 33101301
-0.086127445 -0.092127621 0.9696129 32582925
-0.091879904 -0.094216131 0.9733997 32582925
-0.09698154 -0.096003525 0.9764846 17425861
-0.086779162 -0.059679382 0.83220905 33036312
-0.088257492 -0.059655018 0.83081597 33036312
-0.036681637 -0.082790487 0.98166686 27400922
-0.041379705 -0.08428172 0.98381132 27400922
-0.044733956 -0.085167617 0.98459393 23385172
-0.046753079 -0.085448131 0.98400563 23385172
-0.048107341 -0.085425749 0.98272961 23385172
-0.088485524 -0.09134876 0.97228318 32582925
-0.092335522 -0.092540227 0.97391266 32582925
-0.096804053 -0.094035313 0.97627348 17425861
-0.10256203 -0.095509104 0.97741944 17425861
-0.10636868 -0.096701205 0.97908956 32582925
-0.085242122 -0.057519719 0.83339965 33036312
-0.087858304 -0.058104113 0.83356333 33036312
-0.088768423 -0.057775341 0.83139127 33036312
-0.090247005 -0.057750978 0.82999825 33036312
-0.029769942 -0.078333825 0.97733778 27400922
-0.033151492 -0.079224825 0.97809106 27400922
-0.037190214 -0.080420472 0.97953862 27400922
-0.044570327 -0.082507849 0.98177773 23385172
-0.09342213 -0.091169529 0.97514421 32582925
-0.096627876 -0.092063405 0.97606379 32582925
-0.099824503 -0.092957392 0.976991 17425861
-0.10119022 -0.092303783 0.97307771 32582925
-0.1031248 -0.092587449 0.97256798 32582925
-0.028294191 -0.075024307 0.97315365 27400922
-0.096510872 -0.089452125 0.97317511 32582925
-0.10170788 -0.090001263 0.97090298 32582925
-0.023445025 -0.070794463 0.96822542 27400922
-0.03353864 -0.074139386 0.97313756 27400922
-0.10022375 -0.088043578 0.97192913 32582925
-0.10340753 -0.088948764 0.9728629 17425861
-0.10471858 -0.088927157 0.97162741 17425861
-0.10067841 -0.08637134 0.97244078 32582925
-0.10510525 -0.087903619 0.97482044 17425861
-0.10703419 -0.088192813 0.97431296 17425861
-0.027980313 -0.043465737 0.97636181 25133987
-0.019036219 -0.038354248 0.97284466 25133987
-0.023096874 -0.03968114 0.97419757 25133987
-0.025566027 -0.038906015 0.97676009 25133987
-0.11426131 -0.046515994 0.96263748 20275649
-0.11499648 -0.046144471 0.96065623 20275649
-0.11513703 -0.045423321 0.95794684 20275649
-0.1153224 -0.045171313 0.96387881 20275649
-0.11485991 -0.044095188 0.96045214 20275649
-0.11619686 -0.044073116 0.95919245 20275649
-0.11458419 -0.042770617 0.96295375 20275649
-0.14555399 0.23754096 1.0008225 32064805
-0.14731337 0.23100799 1.0237961 26299693
-0.14635007 0.23540121 1.0167534 26299693
-0.10091427 0.23137891 1.0696476 26882802
-0.10487345 0.23018086 1.0681858 26882802
-0.10743284 0.22895962 1.0680439 26882802
-0.109404 0.22836041 1.0673215 26882802
-0.11137234 0.22776109 1.0666013 19951728
-0.11610673 0.22720745 1.0632749 19951728
-0.11806665 0.22660807 1.0625632 19951728
-0.12593873 0.230239 1.0571232 19951728
-0.13589357 0.2316736 1.0454781 29798126
-0.13617237 0.23294887 1.0429504 29798126
-0.10118771 0.23795348 1.0701175 26882802
-0.11720715 0.23439437 1.0618126 26882802
-0.097697601 0.24094281 1.0721438 26882802
-0.099685371 0.24033663 1.0714011 26882802
-0.10167049 0.23973036 1.0706613 26882802
-0.094572932 0.24202308 1.0772188 26882802
-0.09656316 0.24141505 1.0764728 26882802
-0.098550975 0.240807 1.0757298 26882802
-0.099946707 0.24082997 1.074414 26882802
-0.1019301 0.24022186 1.0736754 26882802
-0.10332441 0.24024484 1.072361 26882802
-0.10471936 0.24026778 1.0710468 26882802
-0.10611416 0.24029076 1.0697324 26882802
-0.11342366 0.23848867 1.0662341 19951728
-0.14881299 0.24163514 1.0283706 26299693
-0.14967282 0.24229008 1.0264313 26299693
-0.15107022 0.24231306 1.0251145 26299693
-0.10021211 0.24131617 1.0774195 26882802
-0.10358498 0.24072906 1.0753698 26882802
-0.10497692 0.24075192 1.0740583 26882802
-0.10636868 0.24077496 1.0727468 26882802
-0.11170267 0.23957741 1.0699782 26882802
-0.11309138 0.23960036 1.0686693 26882802
-0.12060682 0.23908156 1.0627165 26882802
-0.12533574 0.23851675 1.0593894 19951728
-0.1505933 0.24021819 1.033334 26299693
-0.12889366 0.23839617 1.06041 19951728
-0.1557744 0.24141711 1.0305724 25716840
-0.16165836 0.24280295 1.0227733 25716840
-0.12109439 0.23917276 1.0742354 19951728
-0.13953774 0.23882854 1.0579829 33230767
-0.17470612 0.2391566 1.0411108 22218663
-0.02245754 -0.14275435 0.83240902 18591567
-0.023284897 -0.14319205 0.83572805 18591567
-0.02295275 -0.14103171 0.83048928 18591567
-0.025646895 -0.1400537 0.83337599 18591567
-0.079352185 -0.13957451 0.86606628 21441355
-0.069714472 -0.1377756 0.85839427 26105494
-0.051929474 -0.13447315 0.84443092 28437965
-0.084019437 -0.13837105 0.86584735 21441355
-0.08201544 -0.13817796 0.86626858 21441355
-0.079318047 -0.13784105 0.8659538 21441355
-0.070375293 -0.1362097 0.85901821 21441355
-0.060772181 -0.13443574 0.85131735 26105494
-0.055354357 -0.13352565 0.84801114 28437965
-0.051334858 -0.13290352 0.84616703 28437965
-0.081980765 -0.13644046 0.86615568 21441355
-0.078587815 -0.13596565 0.86510754 21441355
-0.071035877 -0.1346398 0.85964179 21441355
-0.062817857 -0.13317321 0.85341626 26105494
-0.057396024 -0.13227484 0.850115 26105494
-0.080551654 -0.13442303 0.86457855 21441355
-0.076465234 -0.13381422 0.86279458 21441355
-0.06347762 -0.13161916 0.85404241 26105494
-0.080421567 -0.13246229 0.86185449 21441355
-0.079122528 -0.13241351 0.86300182 21441355
-0.075735405 -0.13195068 0.86194897 21441355
-0.076892897 -0.13005218 0.85808921 21441355
-0.074903488 -0.12986755 0.85849792 21441355
-0.024903849 -0.1226059 0.83661079 30769633
-0.07476218 -0.1279301 0.85578609 21441355
-0.072080225 -0.12761356 0.85545933 21441355
-0.026089102 -0.12103096 0.83543044 30769633
-0.029618099 -0.12191857 0.84174734 30769633
-0.071932957 -0.12568778 0.85275346 26105494
-0.069954336 -0.12550758 0.85315329 26105494
-0.070501849 -0.12372173 0.8511821 26105494
-0.068526164 -0.12354342 0.85157949 26105494
-0.065161988 -0.12310528 0.85050851 26105494
-0.039722919 -0.12059032 0.85276359 20340382
-0.070468351 -0.12201981 0.8510716 26105494
-0.067098215 -0.12158736 0.8500064 26105494
-0.063736826 -0.12115521 0.84893316 26105494
-0.070434526 -0.12031791 0.85096091 26105494
-0.068458945 -0.12014379 0.85135859 26105494
-0.064399049 -0.11959129 0.84955591 26105494
-0.07109946 -0.11874031 0.85158008 26105494
-0.068425268 -0.11844388 0.8512482 26105494
-0.06506145 -0.1180235 0.8501783 29603671
-0.071764231 -0.11715879 0.85219932 29603671
-0.069786057 -0.11698843 0.85259968 29603671
-0.065723598 -0.11645169 0.85080051 29603671
-0.0037733167 -0.11308566 0.91479057 25069254
0.00059531629 -0.11245139 0.9119162 25069254
-0.0087424368 -0.11211623 0.91833943 25069254
-0.006830737 -0.11195231 0.9186812 25069254
-0.0036886483 -0.11155804 0.91741699 25069254
-0.0038949847 -0.10841255 0.89555579 24486145
-0.0045130998 -0.10870593 0.89904833 24486145
-0.014905289 -0.11152812 0.9262163 25069254
-0.012979105 -0.11136563 0.92657119 25069254
-0.0070047081 -0.107289 0.89940065 24486145
-0.0076151192 -0.10757618 0.90289944 25069254
-0.031086937 -0.11251026 0.94408637 23320439
-0.010762289 -0.106084 0.90132606 24486145
-0.042357266 -0.11252408 0.95551938 23320439
-0.043826252 -0.10419858 0.84911352 23838559
-0.02927345 -0.10634331 0.90502423 19239409
-0.018919006 -0.10578566 0.91147655 24486145
-0.049169704 -0.11188637 0.9641555 29668404
-0.040350541 -0.10033705 0.84518152 23838559
-0.056194067 -0.096552417 0.8723287 27271200
-0.043200359 -0.090445288 0.84050119 23838559
-0.058027923 -0.093120269 0.86908174 27271200
-0.05741632 -0.093165562 0.87096602 27271200
-0.045912325 -0.089159548 0.84334683 27271200
-0.059282869 -0.091453038 0.86783218 27271200
-0.057993859 -0.091404542 0.86897022 27271200
-0.05738245 -0.091447838 0.87085432 27271200
-0.029341057 -0.092280477 0.97073799 30316246
-0.059060141 -0.087766305 0.86237049 27271200
-0.060575113 -0.088197447 0.86909562 27271200
-0.031728134 -0.090792619 0.97385472 30316246
-0.061151385 -0.086440392 0.86710131 27271200
-0.061221287 -0.086563788 0.86972702 27271200
-0.061117411 -0.084722765 0.86698991 27271200
-0.061187163 -0.084842145 0.86961496 27271200
-0.03286691 -0.087282151 0.97523314 27400922
-0.05134365 -0.081622899 0.85129857 27271200
-0.056909919 -0.082396604 0.85981685 27271200
-0.06176497 -0.083087072 0.86761969 27271200
-0.060473174 -0.083038539 0.86876047 27271200
-0.054048136 -0.080261678 0.85414445 27271200
-0.058241993 -0.080855034 0.8611865 27271200
-0.061730847 -0.081367418 0.86750793 27271200
-0.060257152 -0.079383716 0.86329544 27271200
-0.062193438 -0.077796556 0.86278749 19757529
-0.063637629 -0.078052901 0.86688358 27271200
-0.066265047 -0.076528341 0.8671065 27271200
-0.065651968 -0.076553866 0.86899108 31935339
-0.067666203 -0.075042963 0.87109733 31935339
-0.070302382 -0.073499031 0.87131125 31935339
-0.067631692 -0.073309422 0.87098473 31935339
-0.070952058 -0.071829848 0.87193644 31935339
-0.068279982 -0.071644187 0.87161148 31935339
-0.070917875 -0.07009051 0.87182337 31935339
-0.071567461 -0.068415314 0.87244815 31935339
-0.071533218 -0.066673927 0.87233484 31935339
-0.069542438 -0.066562414 0.87275112 31935339
-0.0721827 -0.06499292 0.87295914 31935339
-0.070190445 -0.064883299 0.87337679 31935339
-0.067520261 -0.064713493 0.8730517 31935339
-0.072832122 -0.063307889 0.87358338 31935339
-0.070838422 -0.063200258 0.8740024 31935339
-0.069528967 -0.063151032 0.87515885 31935339
-0.073481575 -0.061618991 0.87420732 31935339
-0.071486309 -0.061513186 0.87462777 31935339
-0.07017529 -0.0614639 0.87578547 31935339
-0.071451992 -0.05976779 0.87451422 31935339
-0.0714176 -0.058022439 0.87440079 31935339
-0.069425225 -0.057920758 0.87481898 31935339
-0.072065264 -0.056327559 0.87502557 31935339
-0.070071906 -0.056227796 0.87544519 31935339
-0.072713166 -0.054628711 0.87565017 31935339
-0.070718259 -0.054530848 0.87607127 31935339
-0.073360533 -0.052925825 0.87627447 31935339
-0.070683703 -0.052783426 0.87595755 31935339
-0.074690565 -0.051263582 0.87763619 31935339
-0.072010681 -0.051125046 0.87732226 31935339
-0.073337406 -0.049458683 0.87868649 31935339
