# .PCD v0.7 - Point Cloud Data file format
VERSION 0.7
FIELDS x y z rgba
SIZE 4 4 4 4
TYPE F F F U
COUNT 1 1 1 1
WIDTH 1106
HEIGHT 1
VIEWPOINT 0 0 0 1 0 0 0
POINTS 1106
DATA ascii
-0.046858631 -0.089939445 0.96505296 30186524
-0.0068298429 -0.1183731 0.92435211 30186524
-0.0013159961 -0.11425705 0.91850048 30186524
0.0010370463 -0.11702516 0.94453055 30186524
0.0038842708 -0.11338671 0.93885452 30186524
-0.019230068 -0.11192635 0.91171926 30186524
0.0055001229 -0.11133257 0.94006079 30186524
-0.018799722 -0.11500766 0.93723458 30186524
0.0035745949 -0.10948985 0.93926924 30186524
-0.019952193 -0.11347865 0.93849283 30186524
0.0024020523 -0.10793499 0.94052297 30186524
0.0016491264 -0.10764728 0.93847793 30186524
-0.021769211 -0.11221778 0.94045895 30186524
-0.02582857 -0.1132523 0.9419778 30186524
-5.7950616e-05 -0.10747126 0.94590157 30186524
-0.0021577328 -0.10771389 0.94525784 30186524
-0.006348595 -0.10819918 0.94397897 30186524
-0.023583934 -0.11096419 0.94242305 30186524
-0.028301716 -0.11227237 0.94465226 30186524
-0.0094745308 -0.10802725 0.95005018 30186524
-0.0081869513 -0.10693236 0.9459278 30186524
-0.0069106966 -0.10583741 0.94179481 30186524
-0.014642075 -0.10868613 0.95818394 30186524
-0.015363023 -0.10839341 0.95617193 30186524
-0.014065877 -0.10729145 0.95206279 30186524
-0.017917022 -0.10686513 0.95609623 30186524
-0.015282676 -0.10521252 0.95058757 30186524
-0.013335869 -0.10383127 0.94576293 30186524
-0.015416786 -0.10407966 0.9451341 30186524
-0.024419084 -0.10812032 0.96560627 30186524
-0.021763191 -0.10645718 0.96012419 30186524
-0.018453285 -0.10452026 0.95392758 30186524
-0.015163735 -0.102583 0.94771165 30186524
-0.015236095 -0.10201284 0.94498199 30186524
-0.019315973 -0.10308357 0.9464609 30186524
-0.038774371 -0.10930622 0.95873398 30186524
-0.047420129 -0.11229314 0.96522611 30186524
-0.024259791 -0.10551703 0.96275371 30186524
-0.022290871 -0.10411787 0.95796031 30186524
-0.018997326 -0.10216794 0.95175534 30186524
-0.017059997 -0.10076829 0.94693202 30186524
-0.020468399 -0.10157103 0.94770998 30186524
-0.020555004 -0.10440188 0.96989161 30186524
-0.023288801 -0.10493309 0.96997303 30186524
-0.026753709 -0.10458787 0.96537966 30186524
-0.026123151 -0.10373389 0.96198779 30186524
-0.02282615 -0.10177118 0.95579356 30186524
-0.021551147 -0.10063952 0.95167965 30186524
-0.024283782 -0.10117088 0.95176262 30186524
-0.020355985 -0.10236641 0.96973962 30186524
-0.022414431 -0.10262249 0.96912748 30186524
-0.025144354 -0.10315744 0.96921057 30186524
-0.027230874 -0.1028331 0.96591681 30186524
-0.027941242 -0.10253135 0.9639197 30186524
-0.027986154 -0.10195071 0.96122187 30186524
-0.024702802 -0.099975042 0.95502228 30186524
-0.01948069 -0.10004665 0.96889931 30186524
-0.021541849 -0.10030445 0.96828395 30186524
-0.024947211 -0.10112374 0.96905512 30186524
-0.027672008 -0.10166243 0.96914095 30186524
-0.030426875 -0.1016171 0.96654552 30186524
-0.031804413 -0.1015944 0.96524769 30186524
-0.019997045 -0.097696587 0.96675235 30186524
-0.024078354 -0.098803855 0.96820933 30186524
-0.028148219 -0.099911325 0.96967703 30186524
-0.030195758 -0.10017119 0.96907347 30186524
-0.03224051 -0.10043109 0.96847242 30186524
-0.018964157 -0.099501111 0.98461324 30186524
-0.019802943 -0.095646396 0.96660358 30186524
-0.023211405 -0.096476652 0.96736592 30186524
-0.02862443 -0.098160177 0.97021312 30186524
-0.032010838 -0.098990746 0.97099596 30186524
-0.034720466 -0.099536978 0.97109181 30186524
-0.064768225 -0.10642823 0.97589439 30186524
-0.010504678 -0.09641806 0.986947 30186524
-0.011883572 -0.096395388 0.98564786 30186524
-0.016696408 -0.097207882 0.9850834 30186524
-0.019438311 -0.097757272 0.98514718 30186524
-0.022194579 -0.097117417 0.97990292 30186524
-0.01893653 -0.093306422 0.96576685 30186524
-0.022346154 -0.094142057 0.9665249 30186524
-0.028429732 -0.096122764 0.97005731 30186524
-0.03181608 -0.096958853 0.97083718 30186524
-0.035194263 -0.097794987 0.97162515 30186524
-0.062615961 -0.10358617 0.97358185 30186524
-0.010981634 -0.094665132 0.98748344 30186524
-0.013047829 -0.094930217 0.98685902 30186524
-0.015797153 -0.095483057 0.9869135 30186524
-0.017856225 -0.095748298 0.98629576 30186524
-0.021278754 -0.0965892 0.98703831 30186524
-0.023329243 -0.096854553 0.98642892 30186524
-0.023497984 -0.092664219 0.96775478 30186524
-0.029576614 -0.094657831 0.97128481 30186524
-0.03429769 -0.096075647 0.97344917 30186524
-0.037002176 -0.096629277 0.97354573 30186524
-0.061120465 -0.10101762 0.97198075 30186524
-0.0086993426 -0.092355736 0.98797625 30186524
-0.013523862 -0.09317904 0.98739475 30186524
-0.015586719 -0.093445957 0.98677272 30186524
-0.018331096 -0.094002664 0.98682994 30186524
-0.021751866 -0.094849043 0.98757094 30186524
-0.024483368 -0.095405944 0.98764056 30186524
-0.02464883 -0.091190137 0.96898383 30186524
-0.028043851 -0.092037059 0.96974951 30186524
-0.035439461 -0.094623573 0.97467417 30186524
-0.040808782 -0.096340753 0.97754389 30186524
-0.0091770142 -0.090599038 0.98851389 30186524
-0.011246815 -0.090867758 0.98788434 30186524
-0.013313338 -0.091136396 0.98725742 30186524
-0.016062692 -0.091696702 0.98730797 30186524
-0.027000651 -0.093938589 0.98756558 30186524
-0.027686939 -0.093624465 0.98559803 30186524
-0.027023837 -0.092727177 0.9822616 30186524
-0.033874825 -0.092614301 0.97580665 30186524
-0.039251253 -0.094342284 0.97866338 30186524
-0.046609282 -0.096945912 0.9836145 30186524
-0.049287409 -0.097507313 0.98373193 30186524
-0.02884911 -0.091572098 0.98416001 30186524
-0.031637892 -0.090307765 0.97625452 30186524
-0.041056365 -0.093198478 0.98057455 30186524
-0.047740966 -0.095525049 0.98483127 30186524
-0.052410066 -0.096971177 0.98702949 30186524
-0.036130086 -0.090334423 0.9809137 30186524
-0.049537241 -0.094403379 0.98673838 30186524
-0.053536952 -0.095563211 0.98824352 30186524
-0.057524666 -0.096723147 0.98975939 30186524
-0.058857515 -0.096701227 0.98850387 30186524
-0.050002024 -0.092694528 0.98726159 30186524
-0.053999484 -0.093861602 0.98876435 30186524
-0.056661531 -0.094434209 0.98889059 30186524
-0.058657527 -0.094709575 0.98832732 30186524
-0.050466508 -0.090985559 0.98778468 30186524
-0.05379951 -0.091860905 0.9885934 30186524
-0.055139303 -0.09183877 0.98733085 30186524
-0.050950691 -0.08865241 0.98565859 30186524
-0.050976083 -0.088028252 0.98300427 30186524
-0.0037733167 -0.11308566 0.91479057 30186524
0.00059531629 -0.11245139 0.9119162 30186524
-0.0094144791 -0.11204947 0.9163999 30186524
-0.0036886483 -0.11155804 0.91741699 30186524
-0.014905289 -0.11152812 0.9262163 30186524
-0.012979105 -0.11136563 0.92657119 30186524
-0.031086937 -0.11251026 0.94408637 30186524
-0.023453861 -0.11151871 0.94005924 30186524
-0.016571775 -0.11046716 0.93402296 30186524
-0.051801667 -0.11215355 0.96452254 30186524
-0.049169704 -0.11188637 0.9641555 30186524
-0.058005616 -0.11136337 0.97234672 30186524
-0.033354536 -0.10772563 0.94971448 30186524
-0.02320461 -0.095157623 0.96570379 30186524
-0.026190564 -0.093790233 0.96963853 30186524
-0.031929329 -0.092506535 0.97114056 30186524
-0.029341057 -0.092280477 0.97073799 30186524
-0.031728134 -0.090792619 0.97385472 30186524
-0.035500333 -0.089341037 0.97574705 30186524
-0.018975869 -0.087753288 0.96883994 30186524
-0.03286691 -0.087282151 0.97523314 30186524
-0.023873374 -0.084653482 0.97227663 30186524
-0.0096000135 -0.10506845 0.88597852 16907741
-0.0093280673 -0.10372357 0.87953961 16907741
-0.011873081 -0.10452553 0.89157927 16907741
-0.010754868 -0.10345715 0.88728082 16907741
-0.014966905 -0.10371385 0.89505959 16907741
-0.01449053 -0.10290112 0.89149749 16907741
-0.013378873 -0.10182542 0.88719726 16907741
-0.013563633 -0.10127539 0.88434941 16907741
-0.017576113 -0.10209886 0.89498067 16907741
-0.019677758 -0.10233952 0.89433628 16907741
-0.020782247 -0.096122697 0.88337356 20340382
-0.020654187 -0.09398374 0.88321191 20340382
-0.02243416 -0.092657603 0.88525003 20340382
-0.024211794 -0.091338851 0.88728607 20340382
-0.016022697 -0.095566705 0.87479359 23838559
-0.015899822 -0.093413033 0.87463528 23838559
-0.016413063 -0.091526039 0.87521261 23838559
-0.016291827 -0.08936692 0.87505603 23838559
-0.018706501 -0.088300243 0.87783515 23838559
-0.016100556 -0.10478934 0.8993395 27271200
-0.018703029 -0.10318162 0.89926225 27271200
-0.0045130998 -0.10870593 0.89904833 27271200
-0.0070155114 -0.10711331 0.89669931 27271200
-0.010144711 -0.10580249 0.89783412 27271200
-0.010762289 -0.106084 0.90132606 27271200
-0.013268769 -0.10464793 0.90166414 27271200
-0.013065428 -0.093675159 0.86823571 30769633
-0.094370656 -0.14057665 0.98932606 17490594
-0.095182277 -0.14105903 0.9911564 17490594
-0.097851224 -0.13884589 0.98872846 17490594
-0.09754958 -0.13586761 0.98413754 17490594
-0.10003125 -0.13301075 0.97911 17490594
-0.10152609 -0.13338819 0.98020089 17490594
-0.10999822 -0.13382857 0.97896498 17490594
-0.10568423 -0.13150199 0.9788754 17490594
-0.11248956 -0.13094023 0.97395569 17490594
-0.10684019 -0.1288427 0.97536421 17490594
-0.11320763 -0.13159798 0.9849512 17490594
-0.11034975 -0.12705132 0.97480977 17490594
-0.11318795 -0.1271904 0.9744119 17490594
-0.113374 -0.12781495 0.97701663 17490594
-0.11488614 -0.12819679 0.97812015 17490594
-0.11506288 -0.12881893 0.9807182 17490594
-0.11456383 -0.12955926 0.98405755 17490594
-0.11338452 -0.13041659 0.98813486 17490594
-0.11169038 -0.1249917 0.97391021 17490594
-0.11320574 -0.1253743 0.97501606 17490594
-0.11339169 -0.12600258 0.97761947 17490594
-0.11441273 -0.12713237 0.98206633 17490594
-0.11023364 -0.12075544 0.96480548 17490594
-0.10978948 -0.12152094 0.96818125 17490594
-0.10867751 -0.12241039 0.97230285 17490594
-0.10755304 -0.12329666 0.9764154 17490594
-0.10906208 -0.1236777 0.97751665 17490594
-0.11008615 -0.12481391 0.98196381 17490594
-0.11159039 -0.12519374 0.98306149 17490594
-0.10219932 -0.11777637 0.96323609 17490594
-0.10372093 -0.11816055 0.96434647 17490594
-0.1074178 -0.11879953 0.96581137 17490594
-0.1063199 -0.11970007 0.96994096 17490594
-0.1058663 -0.12046886 0.97330797 17490594
-0.10540322 -0.12123529 0.976668 17490594
-0.1055908 -0.12187152 0.97927034 17490594
-0.10877439 -0.1232642 0.9840588 17490594
-0.10960928 -0.12376945 0.9859007 17490594
-0.11311228 -0.12377063 0.98475879 17490594
-0.115286 -0.12402503 0.98511261 17490594
-0.10091916 -0.11621765 0.96535969 17490594
-0.10178707 -0.11673314 0.96722496 17490594
-0.1030613 -0.11853646 0.97431505 17490594
-0.10194293 -0.11943936 0.97842711 17490594
-0.10212874 -0.120079 0.98102701 17490594
-0.10071304 -0.1158323 0.97195882 17490594
-0.10030563 -0.11271414 0.96732754 17490594
-0.098569475 -0.11377628 0.97221476 17490594
-0.099703342 -0.11766372 0.98781204 17490594
-0.10097241 -0.11075804 0.96717566 17490594
-0.097397245 -0.11498909 0.98548055 17490594
-0.064457282 -0.076982483 0.95248824 17490594
-0.10550625 -0.13211551 0.97387165 17490594
-0.10558942 -0.13193668 0.97034806 17490594
-0.10678826 -0.13094726 0.98266625 17490594
-0.10271234 -0.13008818 0.97889543 17490594
-0.10331987 -0.12995486 0.97451329 17490594
-0.10394063 -0.12982415 0.97013944 17490594
-0.10354371 -0.12868385 0.98501754 17490594
-0.1009367 -0.12829661 0.98575044 17490594
-0.099923588 -0.1280378 0.98391807 17490594
-0.10166539 -0.12782916 0.97429895 17490594
-0.10175098 -0.12766296 0.9707793 17490594
-0.10135244 -0.1264921 0.9856506 17490594
-0.099272847 -0.12614477 0.98552531 17490594
-0.097189851 -0.12579691 0.98539811 17490594
-0.098394476 -0.12556051 0.97663349 17490594
-0.099556386 -0.12549266 0.97141433 17490594
-0.098027922 -0.12519413 0.9704473 17490594
-0.099156223 -0.12429123 0.98627883 17490594
-0.096003465 -0.12384625 0.9878552 17490594
-0.095520444 -0.12363803 0.98516864 17490594
-0.09396892 -0.12333503 0.98418695 17490594
-0.096731573 -0.12341901 0.97641104 17490594
-0.094652303 -0.12306991 0.97628593 17490594
-0.095825352 -0.12301423 0.97107559 17490594
-0.11365632 -0.12440964 0.97723854 17490594
-0.10531718 -0.12333008 0.98386264 17490594
-0.095353693 -0.12193336 0.98945916 17490594
-0.093795493 -0.121629 0.98847336 17490594
-0.092237346 -0.12132471 0.98748738 17490594
-0.093373232 -0.12127195 0.98225564 17490594
-0.092363857 -0.12101986 0.98042691 17490594
-0.09461052 -0.1210742 0.97351778 17490594
-0.10780001 -0.12188241 0.98388231 17490594
-0.1030893 -0.12127983 0.98803979 17490594
-0.090021268 -0.11909777 0.98809856 17490594
-0.087919787 -0.11874026 0.98795867 17490594
-0.092495397 -0.11873444 0.97062886 17490594
-0.093146913 -0.11865009 0.96628243 17490594
-0.089365117 -0.11716755 0.98969567 17490594
-0.087260783 -0.11680732 0.98955327 17490594
-0.093011677 -0.11681094 0.96702719 17490594
-0.12506537 -0.12096161 0.98100609 17490594
-0.12202182 -0.12036716 0.97908008 17490594
-0.095012605 -0.11631375 0.99171305 17490594
-0.091892883 -0.11472687 0.96596014 17490594
-0.09310814 -0.11471988 0.96078449 17490594
-0.092137136 -0.11448129 0.95898098 17490594
-0.11782584 -0.11783263 0.97963321 17490594
-0.092802189 -0.11406977 0.99232441 17490594
-0.091322742 -0.11270305 0.96405166 17490594
-0.09089496 -0.11252573 0.96140373 17490594
-0.089369826 -0.11222788 0.96043885 17490594
-0.089182071 -0.11113884 0.98134887 17490594
-0.089256942 -0.11101893 0.97783166 17490594
-0.089886434 -0.11096254 0.97347766 17490594
-0.089779772 -0.11044843 0.9603402 17490594
-0.088807836 -0.11021373 0.95853704 17490594
-0.089212462 -0.1090348 0.97506422 17490594
-0.092034563 -0.10924336 0.96734786 17490594
-0.089506492 -0.10823574 0.95149505 17490594
-0.089666061 -0.1081384 0.94803256 17490594
-0.095154539 -0.10541524 0.94723618 17490594
-0.091870598 -0.10411737 0.98277682 17490594
-0.099267803 -0.10423815 0.9447394 17490594
-0.096664838 -0.1038033 0.94546562 17490594
-0.091995254 -0.10300165 0.94607079 17490594
-0.094917558 -0.1027451 0.98196709 17490594
-0.094439767 -0.10258227 0.97929215 17490594
-0.099670291 -0.10249145 0.94464242 17490594
-0.095870644 -0.1010047 0.98101974 17490594
-0.095930867 -0.10091827 0.97750026 17490594
-0.086556651 -0.098727144 0.95852447 17490594
-0.085028417 -0.09842854 0.9575572 17490594
-0.098428346 -0.099489495 0.97753191 17490594
-0.098493829 -0.099410102 0.97401708 17490594
-0.096953914 -0.099109344 0.97304267 17490594
-0.095953993 -0.098883331 0.97122461 17490594
-0.084467515 -0.096424736 0.95565814 17490594
-0.099378251 -0.097762622 0.97658551 17490594
-0.098907784 -0.097613283 0.97391742 17490594
-0.096291803 -0.097159721 0.97463238 17490594
-0.094748542 -0.09685833 0.97365588 17490594
-0.085024692 -0.094585866 0.95209718 17490594
-0.099321693 -0.095816448 0.97381794 17490594
-0.096169062 -0.095280722 0.97537696 17490594
-0.094084896 -0.094900407 0.97524297 17490594
-0.087001994 -0.093410209 0.96602255 17490594
-0.083065234 -0.09253455 0.95879275 17490594
-0.085991099 -0.092892453 0.95116693 17490594
-0.10020793 -0.094161235 0.97638595 17490594
-0.098664798 -0.093859762 0.97540933 17490594
-0.095510133 -0.09331765 0.97696602 17490594
-0.092884287 -0.092854187 0.97767317 17490594
-0.092132054 -0.092460446 0.96535432 17490594
-0.092785247 -0.092489325 0.96103048 17490594
-0.08631853 -0.091448367 0.96759719 17490594
-0.082922079 -0.090661578 0.95952648 17490594
-0.091556311 -0.090453699 0.96344566 17490594
-0.088378169 -0.08990097 0.96498638 17490594
-0.083889537 -0.088956244 0.95859444 17490594
-0.059684627 -0.082751192 0.96540499 17490594
-0.061102822 -0.081138901 0.9671182 17490594
-0.083318487 -0.083152816 0.95123971 17490594
-0.08026839 -0.082557023 0.94930959 17490594
-0.06039042 -0.079122968 0.968665 17490594
-0.091845065 -0.13044265 0.99473327 17490594
-0.076224074 -0.12283654 0.97213238 17490594
-0.087141559 -0.12833749 0.99741453 17490594
-0.091694236 -0.12967579 0.99978358 17490594
-0.091662034 -0.12911102 0.99715072 17490594
-0.078139454 -0.1188754 0.96061593 17490594
-0.07818909 -0.11830923 0.95790523 17490594
-0.087584391 -0.12670934 0.99791282 17490594
-0.09082666 -0.12750933 0.99884981 17490594
-0.090145707 -0.1266672 0.99549955 17490594
-0.084264785 -0.12363473 0.98640233 17490594
-0.079065412 -0.12087551 0.97799379 17490594
-0.081733927 -0.11969353 0.97015625 17490594
-0.079838783 -0.11830232 0.96528822 17490594
-0.082444564 -0.11882834 0.96549433 17490594
-0.088681906 -0.12535673 0.99912399 17490594
-0.089307681 -0.12506011 0.9972046 17490594
-0.083411902 -0.12143512 0.98547333 17490594
-0.086692497 -0.1199495 0.97573346 17490594
-0.08093825 -0.1168948 0.96652836 17490594
-0.082678348 -0.1157686 0.96849161 17490594
-0.081753612 -0.11991302 0.99685949 17490594
-0.083175108 -0.11351021 0.9663114 17490594
-0.080309346 -0.11917854 1.0031228 17490594
-0.081543595 -0.11799099 0.99665338 17490594
-0.087505072 -0.11293223 0.96848363 17490594
-0.092721477 -0.11342985 0.96622151 17490594
-0.087886125 -0.11243389 0.97436804 17490594
-0.089835405 -0.11269542 0.97385699 17490594
-0.091782212 -0.11295703 0.97334832 17490594
-0.09436132 -0.11350175 0.97356945 17490594
-0.096934825 -0.11404656 0.97379571 17490594
-0.10266562 -0.11600747 0.97767514 17490594
-0.10900792 -0.11825202 0.98230416 17490594
-0.081801474 -0.11501128 0.99958235 17490594
-0.089736998 -0.10516457 0.97372979 17490594
-0.098035887 -0.10833815 0.9804464 17490594
-0.10566947 -0.11122169 0.98646849 17490594
-0.08828336 -0.1026173 0.97207719 17490594
-0.097215533 -0.10610323 0.97950608 17490594
-0.10611297 -0.10958985 0.98696798 17490594
-0.11308134 -0.11219998 0.99228626 17490594
-0.12128393 -0.11539517 0.99908251 17490594
-0.081748933 -0.097706132 0.96466261 17490594
-0.093227431 -0.10239043 0.97495824 17490594
-0.11162739 -0.10970207 0.99060625 17490594
-0.12171765 -0.11380003 0.99957067 17490594
-0.06158635 -0.088382915 0.95033616 17490594
-0.098783523 -0.10247816 0.97856992 17490594
-0.10828431 -0.106305 0.98675734 17490594
-0.070527136 -0.089273863 0.95474881 17490594
-0.097970843 -0.10022676 0.97763222 17490594
-0.10620725 -0.10348172 0.9843623 17490594
-0.091424242 -0.095892057 0.97288686 17490594
-0.097790748 -0.098267712 0.97741824 17490594
-0.10287537 -0.10004443 0.98052555 17490594
-0.086127445 -0.092127621 0.9696129 17490594
-0.091879904 -0.094216131 0.9733997 17490594
-0.09698154 -0.096003525 0.9764846 17490594
-0.088485524 -0.09134876 0.97228318 17490594
-0.092335522 -0.092540227 0.97391266 17490594
-0.096804053 -0.094035313 0.97627348 17490594
-0.10256203 -0.095509104 0.97741944 17490594
-0.09342213 -0.091169529 0.97514421 17490594
-0.096627876 -0.092063405 0.97606379 17490594
-0.099824503 -0.092957392 0.976991 17490594
-0.1031248 -0.092587449 0.97256798 17490594
-0.094564945 -0.089166738 0.97369641 17490594
-0.098453894 -0.08973749 0.97265679 17490594
-0.10039376 -0.09002284 0.97214097 17490594
-0.093134746 -0.086564295 0.97205263 17490594
-0.095084682 -0.086851366 0.97152656 17490594
-0.098282754 -0.087756358 0.97244686 17490594
-0.10022375 -0.088043578 0.97192913 17490594
-0.10067841 -0.08637134 0.97244078 17490594
-0.10510525 -0.087903619 0.97482044 17490594
-0.10703419 -0.088192813 0.97431296 17490594
-0.1080448 -0.087491073 0.97822231 17490594
-0.059874713 0.23406129 1.0630536 20923235
-0.082374886 0.24204199 1.0746111 20923235
-0.12289763 0.23049501 1.1276636 20923235
-0.053190194 0.24647814 1.0829122 20923235
-0.055514626 0.24521187 1.0857162 20923235
-0.05760885 0.24536243 1.0861367 20923235
-0.063282728 0.2452884 1.0880618 20923235
-0.069186948 0.24379767 1.0923703 20923235
-0.07086499 0.24201539 1.0958099 20923235
-0.042791121 0.24746743 1.0814339 20923235
-0.044256188 0.24709752 1.082503 20923235
-0.046334721 0.24725384 1.0829126 20923235
-0.059319742 0.24533769 1.0901741 20923235
-0.060789503 0.24496645 1.0912466 20923235
-0.056832679 0.2449992 1.0933584 20923235
-0.03916309 0.24779415 1.0865647 20923235
-0.040618747 0.24742657 1.0876269 20923235
-0.042074353 0.24705905 1.0886891 20923235
-0.043530002 0.2466915 1.0897514 20923235
-0.04644125 0.24595645 1.0918757 20923235
-0.048516639 0.24611732 1.0922843 20923235
-0.057889119 0.24443585 1.0980179 20923235
-0.026339388 0.25140718 1.0799853 20923235
-0.031545274 0.24940586 1.0848894 20923235
-0.032390445 0.24850556 1.0866114 20923235
-0.038799845 0.24757418 1.0901831 20923235
-0.040864266 0.24773973 1.0905844 20923235
-0.041701719 0.24684149 1.0923007 20923235
-0.043152608 0.24647516 1.0933595 20923235
-0.058103301 0.24476069 1.1009538 20923235
-0.016997034 0.25137869 1.0803622 20923235
-0.038427077 0.24734524 1.0937911 20923235
-0.026512755 0.25001916 1.0889733 20923235
-0.035161696 0.2478354 1.0952846 20923235
-0.020411456 0.25121409 1.0883934 20923235
-0.030468991 0.24867472 1.0957328 20923235
-0.019467087 0.25040114 1.0926763 20923235
-0.020897569 0.25004002 1.09372 20923235
-0.022328125 0.24967876 1.094764 20923235
-0.023758588 0.24931756 1.0958077 20923235
-0.0251891 0.24895638 1.0968517 20923235
-0.027226934 0.2491363 1.097236 20923235
-0.017085822 0.24993598 1.0959054 20923235
-0.021358514 0.2488572 1.0990231 20923235
-0.024814265 0.24868086 1.1004428 20923235
-0.026240079 0.24832085 1.1014832 20923235
-0.029703723 0.24814257 1.1029086 20923235
-0.035413183 0.246701 1.107075 20923235
-0.030114235 0.24696121 1.1081711 20923235
-0.038640805 0.24480838 1.1143934 20923235
-0.016351523 0.24934334 1.1030864 20923235
-0.017766336 0.2489861 1.1041188 20923235
-0.019786956 0.24917597 1.1044923 20923235
-0.040243901 0.24471089 1.1183195 20923235
-0.017986024 0.24922657 1.1070319 20923235
-0.12891217 0.22801571 1.1437578 20923235
-0.12707117 0.22837535 1.142593 20923235
-0.12968048 0.22873133 1.1381799 20923235
-0.12906225 0.22941953 1.1306022 20923235
-0.12670384 0.22904657 1.1257316 20923235
-0.16276021 0.18227127 0.98752379 20923235
-0.13306966 0.22973993 1.1282074 20923235
-0.13125353 0.23009466 1.1270583 20923235
-0.12943731 0.23044947 1.1259089 20923235
-0.12847847 0.23007695 1.1230509 20923235
-0.12709579 0.23006713 1.1210502 20923235
-0.13525087 0.23040096 1.1246601 20923235
-0.12922333 0.2296049 1.1129694 20923235
-0.15144254 0.22859301 1.1311064 20923235
-0.14700755 0.23002717 1.1305498 20923235
-0.14380792 0.23036817 1.1274003 20923235
-0.16391519 0.19294026 1.0073887 20923235
-0.15013818 0.18654622 0.96267539 20923235
-0.14905733 0.18647337 0.96086657 20923235
-0.14637201 0.23064016 1.1229764 20923235
-0.14457403 0.23099126 1.1218388 20923235
-0.14277604 0.23134255 1.120701 20923235
-0.14139868 0.23132561 1.1187048 20923235
-0.14002463 0.23130803 1.1167111 20923235
-0.13823 0.23165861 1.1155754 20923235
-0.13643526 0.23200905 1.1144398 20923235
-0.13506787 0.23199029 1.11245 20923235
-0.13370381 0.23197077 1.1104623 20923235
-0.16301171 0.19593892 1.0098125 20923235
-0.16017525 0.19020268 0.98327887 20923235
-0.15209921 0.23056212 1.1216818 20923235
-0.1435625 0.23194154 1.1151561 20923235
-0.14177279 0.2322911 1.1140234 20923235
-0.13725725 0.23259714 1.1089182 20923235
-0.13497485 0.23217922 1.1041015 20923235
-0.16195844 0.20013064 1.0166353 20923235
-0.16080971 0.19286868 0.98668182 20923235
-0.15861268 0.22973439 1.1186408 20923235
-0.15683125 0.23008242 1.1175134 20923235
-0.15368162 0.23040763 1.1143967 20923235
-0.15012197 0.23110288 1.1121442 20923235
-0.1483421 0.23145048 1.1110179 20923235
-0.14698212 0.23142621 1.1090337 20923235
-0.13717264 0.23276229 1.1005793 20923235
-0.14517173 0.23307203 1.1041011 20923235
-0.1429743 0.23379321 1.1038336 20923235
-0.14162531 0.23376474 1.1018568 20923235
-0.14027975 0.23373549 1.0998819 20923235
-0.16076179 0.2046255 1.0162371 20923235
-0.16142988 0.19777967 0.99082369 20923235
-0.15304746 0.19474536 0.96754628 20923235
-0.1502554 0.19412282 0.96128637 20923235
-0.15986869 0.20766857 1.018658 20923235
-0.16090654 0.20570189 1.0125777 20923235
-0.16164087 0.20085469 0.99507529 20923235
-0.16140406 0.20001902 0.99155658 20923235
-0.15958907 0.19949149 0.98703921 20923235
-0.1571347 0.19850095 0.97987181 20923235
-0.15601867 0.19842499 0.97804254 20923235
-0.15537103 0.19796343 0.97538698 20923235
-0.14972399 0.19671455 0.96283025 20923235
-0.14395986 0.19754633 0.95805991 20923235
-0.14992093 0.23380451 1.0961705 20923235
-0.16000833 0.20874585 1.0149955 20923235
-0.16061191 0.20714797 1.0097647 20923235
-0.16123208 0.20554684 1.0045444 20923235
-0.16096894 0.20471017 1.0010102 20923235
-0.16071589 0.20387171 0.99748242 20923235
-0.16092579 0.20264663 0.99312514 20923235
-0.16023928 0.20218872 0.99044573 20923235
-0.15955941 0.20172958 0.98777026 20923235
-0.15888603 0.20126899 0.98509938 20923235
-0.15821944 0.20080721 0.98243231 20923235
-0.15644287 0.20026618 0.9779405 20923235
-0.15468608 0.19972128 0.97346127 20923235
-0.1535811 0.19964111 0.97163963 20923235
-0.13658009 0.20088962 0.95302403 20923235
-0.15955739 0.21141665 1.0165719 20923235
-0.16015555 0.20980982 1.0113397 20923235
-0.16077012 0.20819953 1.0061176 20923235
-0.16050234 0.20735775 1.0025818 20923235
-0.16021298 0.20443401 0.99117744 20923235
-0.15953057 0.20397133 0.98850119 20923235
-0.15885486 0.20350733 0.98582923 20923235
-0.15706195 0.20296338 0.98132843 20923235
-0.15023459 0.20161477 0.96690875 20923235
-0.1464854 0.2017509 0.96229208 20923235
-0.14679527 0.23540246 1.0810281 20923235
-0.15040486 0.22509623 1.0474153 20923235
-0.15925504 0.21286628 1.0137537 20923235
-0.1603099 0.21086004 1.0076905 20923235
-0.16048639 0.20962539 1.0033153 20923235
-0.16067626 0.20838819 0.9989484 20923235
-0.15950279 0.20621704 0.98923171 20923235
-0.15882434 0.20574947 0.98655897 20923235
-0.15769377 0.2056703 0.98472172 20923235
-0.15413527 0.20456509 0.9757393 20923235
-0.14866519 0.22900349 1.0515256 20923235
-0.15880252 0.21554542 1.0153278 20923235
-0.1594045 0.2139176 1.0101018 20923235
-0.15957429 0.21267608 1.0057237 20923235
-0.16020758 0.21104215 1.0005176 20923235
-0.15833806 0.20838672 0.98812085 20923235
-0.15766208 0.20791464 0.98545039 20923235
-0.15653265 0.20783326 0.98361421 20923235
-0.15586823 0.20735881 0.98095113 20923235
-0.15474707 0.20727578 0.97912025 20923235
-0.15409432 0.20679922 0.97646439 20923235
-0.15187165 0.2066292 0.97281551 20923235
-0.14966252 0.20645665 0.96917456 20923235
-0.14528354 0.2061037 0.96191835 20923235
-0.14824466 0.23176095 1.0531032 20923235
-0.15894805 0.21659529 1.0116738 20923235
-0.15956102 0.21495524 1.0064566 20923235
-0.15974064 0.21370387 1.0020865 20923235
-0.15948227 0.21284217 0.99855965 20923235
-0.15923364 0.21197852 0.99503946 20923235
-0.15854026 0.2115058 0.99235874 20923235
-0.15785345 0.21103178 0.98968232 20923235
-0.15717332 0.21055648 0.98700988 20923235
-0.1560401 0.21047376 0.98517185 20923235
-0.15537159 0.20999618 0.98250681 20923235
-0.15470965 0.20951739 0.97984588 20923235
-0.15358962 0.20943202 0.97801638 20923235
-0.15247299 0.20934606 0.97618866 20923235
-0.14257169 0.20854327 0.95983475 20923235
-0.14100528 0.20884927 0.95884353 20923235
-0.15901245 0.21550651 1.0001262 20923235
-0.15875925 0.21463774 0.9966042 20923235
-0.15851586 0.21376687 0.99308866 20923235
-0.15737073 0.21368457 0.99124324 20923235
-0.15668638 0.21320596 0.98856902 20923235
-0.15554938 0.21312197 0.98672897 20923235
-0.15487663 0.21264119 0.98406202 20923235
-0.15374787 0.2125556 0.98222739 20923235
-0.15308674 0.21207254 0.97956771 20923235
-0.15196629 0.21198538 0.9777382 20923235
-0.15131667 0.21149996 0.97508585 20923235
-0.1506737 0.21101335 0.97243786 20923235
-0.14956644 0.21092357 0.97061676 20923235
-0.14846264 0.21083312 0.96879756 20923235
-0.14783613 0.21034323 0.96616006 20923235
-0.14626475 0.21065022 0.96516562 20923235
-0.14517076 0.2105578 0.96335304 20923235
-0.14408018 0.21046475 0.96154201 20923235
-0.15678626 0.23608397 1.0644318 20923235
-0.14995153 0.23741883 1.060107 20923235
-0.14867859 0.23735945 1.058181 20923235
-0.14877604 0.2348756 1.0492812 20923235
-0.1582866 0.21730462 0.99816859 20923235
-0.15803869 0.21642871 0.99465108 20923235
-0.15734522 0.21594799 0.99197167 20923235
-0.15665825 0.21546586 0.98929679 20923235
-0.15551913 0.21538027 0.9874559 20923235
-0.15484391 0.2148959 0.98478806 20923235
-0.15371312 0.21480867 0.98295236 20923235
-0.15304936 0.21432211 0.98029208 20923235
-0.15192696 0.21423325 0.97846121 20923235
-0.15127473 0.21374446 0.97580838 20923235
-0.15016045 0.21365394 0.97398305 20923235
-0.14904946 0.21356279 0.97216004 20923235
-0.14731123 0.21297798 0.96769929 20923235
-0.14511578 0.21279062 0.96406972 20923235
-0.14402308 0.21269594 0.96225792 20923235
-0.16022994 0.23656431 1.0628505 20923235
-0.15895317 0.23650369 1.0609227 20923235
-0.15597934 0.23677438 1.0579211 20923235
-0.15005137 0.23731209 1.0519304 20923235
-0.14923133 0.23685195 1.0491717 20923235
-0.15017842 0.23480617 1.0430523 20923235
-0.15235324 0.21608412 0.97835881 20923235
-0.1501172 0.2159006 0.9747045 20923235
-0.14726125 0.21521792 0.96841794 20923235
-0.15772571 0.23757015 1.0552686 20923235
-0.15603034 0.23790134 1.0541958 20923235
-0.15263946 0.23856363 1.0520502 20923235
-0.15181684 0.23810001 1.0492907 20923235
-0.15100075 0.23763517 1.0465355 20923235
-0.150631 0.23677088 1.0429434 20923235
-0.15159534 0.23470977 1.0368369 20923235
-0.15663646 0.22217591 0.99860787 20923235
-0.15593301 0.22168911 0.99592358 20923235
-0.15569232 0.22079967 0.99241316 20923235
-0.17888723 0.23393346 1.0626656 20923235
-0.17678715 0.23465779 1.0624561 20923235
-0.17468391 0.23538275 1.0622439 20923235
-0.17257732 0.23610836 1.0620302 20923235
-0.17046739 0.23683459 1.0618143 20923235
-0.16919295 0.23676935 1.059889 20923235
-0.16707988 0.23749636 1.0596704 20923235
-0.16623154 0.23703367 1.0568956 20923235
-0.16538975 0.23656978 1.054125 20923235
-0.16370256 0.23689929 1.0530573 20923235
-0.16158773 0.23762654 1.0528383 20923235
-0.15445141 0.23807795 1.0449655 20923235
-0.15276749 0.23840682 1.0439 20923235
-0.15196209 0.23793574 1.0411525 20923235
-0.15204532 0.23666285 1.0367286 20923235
-0.15258424 0.23498689 1.0314744 20923235
-0.1535839 0.23290673 1.0253927 20923235
-0.15580373 0.22744663 1.0088925 20923235
-0.15616514 0.22486283 1.0001689 20923235
-0.15545726 0.22437268 0.99748296 20923235
-0.15521194 0.22347809 0.99397063 20923235
-0.15497652 0.22258162 0.99046463 20923235
-0.154292 0.22208707 0.98779339 20923235
-0.14495601 0.21951228 0.96621913 20923235
-0.13440876 0.22125818 0.95842618 20923235
-0.18266399 0.23398831 1.060185 20923235
-0.18098353 0.23431656 1.0591215 20923235
-0.17889066 0.23504151 1.0589157 20923235
-0.17720842 0.23537011 1.0578512 20923235
-0.1755261 0.23569861 1.0567869 20923235
-0.17342661 0.23642488 1.056577 20923235
-0.17216171 0.23635571 1.0546581 20923235
-0.17005888 0.23708266 1.054446 20923235
-0.16921951 0.2366142 1.0516777 20923235
-0.16753905 0.23694251 1.0506141 20923235
-0.1658584 0.23727082 1.0495508 20923235
-0.16375063 0.2379985 1.0493357 20923235
-0.16249731 0.23792727 1.047424 20923235
-0.1599557 0.23905601 1.048053 20923235
-0.15827183 0.2393849 1.0469874 20923235
-0.15745567 0.23891196 1.0442337 20923235
-0.15664609 0.23843768 1.0414844 20923235
-0.15496872 0.23876525 1.040423 20923235
-0.15373044 0.23869106 1.0385206 20923235
-0.1529357 0.23821388 1.0357805 20923235
-0.15258981 0.23733294 1.0322057 20923235
-0.15474121 0.23185389 1.0156685 20923235
-0.15534419 0.23015533 1.0104567 20923235
-0.15551318 0.22885758 1.006089 20923235
-0.15569538 0.22755733 1.0017297 20923235
-0.15498348 0.22706413 0.99904168 20923235
-0.15473346 0.22616433 0.99552763 20923235
-0.15495045 0.2248573 0.99119037 20923235
-0.15426335 0.22435921 0.98851818 20923235
-0.15404306 0.2234536 0.98502296 20923235
-0.1533709 0.22295251 0.98236024 20923235
-0.15224169 0.222857 0.98052692 20923235
-0.15111561 0.22276068 0.97869599 20923235
-0.14999293 0.2226638 0.97686696 20923235
-0.14887367 0.22256629 0.97503984 20923235
-0.14775757 0.22246811 0.97321504 20923235
-0.14664485 0.22236927 0.97139239 20923235
-0.14553548 0.2222697 0.96957171 20923235
-0.14490463 0.22176057 0.96693516 20923235
-0.1428497 0.22247811 0.96675354 20923235
-0.14127 0.22278666 0.96575409 20923235
-0.1401705 0.22268525 0.96393973 20923235
-0.13859263 0.22299343 0.96294099 20923235
-0.18181421 0.23461245 1.0536612 20923235
-0.17972842 0.23533802 1.0534596 20923235
-0.17763923 0.23606431 1.0532562 20923235
-0.17512982 0.23719072 1.0539047 20923235
-0.17386948 0.23711875 1.051989 20923235
-0.17261246 0.23704614 1.0500751 20923235
-0.1709369 0.23737349 1.0490148 20923235
-0.1692612 0.23770066 1.0479547 20923235
-0.16758566 0.23802789 1.0468944 20923235
-0.1654831 0.2387567 1.0466825 20923235
-0.16423438 0.23868246 1.0447739 20923235
-0.16255887 0.23900977 1.0437136 20923235
-0.16131501 0.23893441 1.0418082 20923235
-0.16007434 0.2388586 1.0399051 20923235
-0.15883724 0.23878209 1.0380037 20923235
-0.15716656 0.23910832 1.0369467 20923235
-0.15593436 0.23903091 1.0350487 20923235
-0.15470538 0.23895273 1.0331529 20923235
-0.15392141 0.23846945 1.0304202 20923235
-0.15314409 0.23798484 1.0276916 20923235
-0.15370832 0.23628376 1.0224576 20923235
-0.15428905 0.2345794 1.0172338 20923235
-0.15443812 0.23327759 1.0128549 20923235
-0.15460025 0.23197304 1.0084845 20923235
-0.15477584 0.230666 1.0041226 20923235
-0.1545113 0.22976312 1.0006003 20923235
-0.15425669 0.22885822 0.9970845 20923235
-0.15401201 0.22795141 0.99357468 20923235
-0.15423556 0.2266351 0.98924297 20923235
-0.15355241 0.22613217 0.98657435 20923235
-0.15333758 0.2252195 0.98308349 20923235
-0.15220612 0.22512226 0.98124939 20923235
-0.15107806 0.2250244 0.97941738 20923235
-0.14948682 0.22533523 0.97841036 20923235
-0.1488319 0.2248268 0.97575927 20923235
-0.1477138 0.22472696 0.97393358 20923235
-0.14659895 0.22462665 0.97211003 20923235
-0.14548738 0.2245255 0.97028834 20923235
-0.14437924 0.22442372 0.96846884 20923235
-0.14279793 0.22473256 0.96746814 20923235
-0.14121664 0.22504142 0.96646762 20923235
-0.13963531 0.22535032 0.96546692 20923235
-0.13853538 0.22524694 0.96365273 20923235
-0.13695572 0.22555545 0.96265328 20923235
-0.18224396 0.23528673 1.0490689 20923235
-0.18057826 0.23561198 1.048015 20923235
-0.17807978 0.23674046 1.0486699 20923235
-0.17682877 0.23666456 1.0467606 20923235
-0.17516156 0.2369902 1.0457056 20923235
-0.1730727 0.23771831 1.0455018 20923235
-0.17140381 0.23804434 1.0444455 20923235
-0.16973485 0.23837033 1.0433894 20923235
-0.16721308 0.23950338 1.0440296 20923235
-0.16596885 0.23942617 1.0421243 20923235
-0.16472788 0.23934828 1.0402213 20923235
-0.16305898 0.23967426 1.0391651 20923235
-0.16182287 0.23959558 1.0372653 20923235
-0.16102476 0.23911098 1.0345244 20923235
-0.15936075 0.23943606 1.0334716 20923235
-0.15813464 0.23935519 1.0315778 20923235
-0.15647231 0.23967998 1.030526 20923235
-0.15480997 0.2400047 1.029474 20923235
-0.15359044 0.23992257 1.0275846 20923235
-0.15370791 0.23861893 1.0231874 20923235
-0.15339239 0.23771986 1.0196341 20923235
-0.15353477 0.23641126 1.0152525 20923235
-0.15369029 0.23510012 1.0108794 20923235
-0.15385902 0.23378627 1.0065148 20923235
-0.15404098 0.2324699 1.0021584 20923235
-0.15378182 0.23155995 0.99864042 20923235
-0.15398858 0.23023865 0.99429989 20923235
-0.15329298 0.22973408 0.99162412 20923235
-0.15306363 0.2288183 0.98812515 20923235
-0.15238282 0.22831082 0.98545891 20923235
-0.15124607 0.22821267 0.98362154 20923235
-0.1501127 0.2281139 0.98178643 20923235
-0.14898254 0.22801442 0.97995341 20923235
-0.14832334 0.22750273 0.97730058 20923235
-0.14767085 0.22698973 0.97465175 20923235
-0.14655395 0.22688769 0.97282726 20923235
-0.14496766 0.22719757 0.97182351 20923235
-0.14432989 0.22668168 0.96918446 20923235
-0.14274693 0.22699086 0.96818268 20923235
-0.14068638 0.22771344 0.96799678 20923235
-0.13641511 0.2282275 0.96417612 20923235
-0.13531645 0.228122 0.96236289 20923235
-0.13373503 0.22843081 0.96136242 20923235
-0.13215378 0.22873965 0.96036178 20923235
-0.13057251 0.22904858 0.95936102 20923235
-0.12899114 0.22935729 0.95836061 20923235
-0.12533435 0.23039192 0.95716453 20923235
-0.12375138 0.23070103 0.95616281 20923235
-0.18019234 0.23707399 1.0451449 20923235
-0.17894752 0.23699479 1.0432398 20923235
-0.17728689 0.23731923 1.042189 20923235
-0.1752052 0.23804805 1.0419893 20923235
-0.1735429 0.23837274 1.0409373 20923235
-0.17188042 0.23869735 1.0398854 20923235
-0.16979219 0.23942763 1.0396817 20923235
-0.16855577 0.23934677 1.0377818 20923235
-0.16732261 0.23926538 1.0358839 20923235
-0.16566189 0.23958978 1.0348328 20923235
-0.16443375 0.23950747 1.0329384 20923235
-0.16320886 0.23942453 1.0310457 20923235
-0.16155137 0.23974817 1.0299971 20923235
-0.15989402 0.24007195 1.0289482 20923235
-0.15867577 0.23998773 1.0270599 20923235
-0.15657915 0.24071933 1.0268508 20923235
-0.15492178 0.24104309 1.0258021 20923235
-0.15415262 0.24054885 1.0230802 20923235
-0.15383576 0.23964417 1.0195273 20923235
-0.15352876 0.23873736 1.0159807 20923235
-0.15323181 0.23782872 1.0124403 20923235
-0.15339561 0.23650786 1.0080738 20923235
-0.15311994 0.23559497 1.0045472 20923235
-0.15330854 0.23426935 1.0001963 20923235
-0.15305452 0.23335224 0.99668318 20923235
-0.1528105 0.23243317 0.9931764 20923235
-0.15211739 0.23192409 0.99050283 20923235
-0.15143098 0.23141383 0.98783332 20923235
-0.15028872 0.23131458 0.98599309 20923235
-0.14961378 0.23080198 0.98333126 20923235
-0.14801429 0.23111442 0.98231906 20923235
-0.1473493 0.2305999 0.97966313 20923235
-0.14669092 0.23008396 0.97701168 20923235
-0.14556859 0.22998092 0.97518402 20923235
-0.14444952 0.22987732 0.97335857 20923235
-0.14333393 0.22977309 0.97153491 20923235
-0.14222156 0.22966811 0.96971345 20923235
-0.14063521 0.22997791 0.96870965 20923235
-0.13904893 0.23028772 0.96770614 20923235
-0.13794312 0.23018149 0.9658888 20923235
-0.13635851 0.23049091 0.96488613 20923235
-0.13209178 0.23100218 0.96106875 20923235
-0.13050875 0.23131138 0.96006697 20923235
-0.1289258 0.23162055 0.95906538 20923235
-0.12734278 0.23192966 0.95806378 20923235
-0.12526609 0.23265748 0.95786738 20923235
-0.12368152 0.23296694 0.95686454 20923235
-0.12209672 0.23327647 0.9558621 20923235
-0.12001356 0.23400563 0.955661 20923235
-0.11742663 0.23515534 0.95625919 20923235
-0.11583705 0.23546588 0.95525324 20923235
-0.11374379 0.23619689 0.95504624 20923235
-0.1111419 0.23734954 0.95563483 20923235
-0.10954741 0.23766096 0.95462579 20923235
-0.17940864 0.23763278 1.0386733 20923235
-0.17733409 0.23836228 1.0384777 20923235
-0.1756783 0.23868567 1.03743 20923235
-0.17402251 0.23900907 1.0363822 20923235
-0.17194134 0.23973979 1.0361825 20923235
-0.17071103 0.23965584 1.0342869 20923235
-0.169484 0.23957121 1.0323935 20923235
-0.16782998 0.23989433 1.0313466 20923235
-0.16617595 0.24021737 1.0303 20923235
-0.16495557 0.24013153 1.0284107 20923235
-0.16330306 0.24045426 1.0273652 20923235
-0.16165064 0.24077702 1.0263195 20923235
-0.15999815 0.24109972 1.0252739 20923235
-0.15790536 0.24183267 1.025067 20923235
-0.15669334 0.24174528 1.0231826 20923235
-0.15592821 0.24124622 1.0204643 20923235
-0.15472434 0.24115708 1.0185854 20923235
-0.1532239 0.24015321 1.0131676 20923235
-0.15338416 0.23882504 1.0088004 20923235
-0.15265374 0.2383192 1.0061039 20923235
-0.15283713 0.23698637 1.0017518 20923235
-0.15257844 0.23606406 0.99823689 20923235
-0.15232973 0.23514001 0.99472815 20923235
-0.1516325 0.23462775 0.99205273 20923235
-0.1509418 0.2341141 0.98938137 20923235
-0.14979585 0.23401372 0.98753929 20923235
-0.1486533 0.23391265 0.98569894 20923235
-0.14751396 0.23381092 0.98386121 20923235
-0.14637792 0.23370853 0.98202515 20923235
-0.14571366 0.23318979 0.97937089 20923235
-0.14505611 0.23266979 0.97672033 20923235
-0.14393334 0.23256481 0.9748928 20923235
-0.14281382 0.23245926 0.97306734 20923235
-0.1416976 0.232353 0.97124404 20923235
-0.14010809 0.23266348 0.97023815 20923235
-0.13851851 0.23297398 0.96923232 20923235
-0.13692887 0.23328444 0.96822643 20923235
-0.13582106 0.23317651 0.96640837 20923235
-0.13471647 0.23306809 0.96459216 20923235
-0.12886126 0.23388745 0.9597702 20923235
-0.12678511 0.23461723 0.95957351 20923235
-0.12152963 0.23596789 0.95736527 20923235
-0.11944341 0.23669961 0.95716238 20923235
-0.11526125 0.23816498 0.95674998 20923235
-0.11316518 0.23889865 0.95654076 20923235
-0.11106572 0.2396329 0.95632929 20923235
-0.10896298 0.24036792 0.95611596 20923235
-0.10685698 0.24110341 0.95590061 20923235
-0.17987938 0.23825267 1.034116 20923235
-0.17781027 0.23898306 1.0339233 20923235
-0.17616113 0.23930514 1.0328799 20923235
-0.17408688 0.24003655 1.0326842 20923235
-0.17286287 0.23994945 1.0307926 20923235
-0.17121367 0.24027145 1.0297494 20923235
-0.16999452 0.24018331 1.0278612 20923235
-0.16877876 0.2400946 1.0259752 20923235
-0.16713287 0.24041606 1.0249335 20923235
-0.16548704 0.24073748 1.0238923 20923235
-0.16384123 0.2410589 1.0228508 20923235
-0.16219532 0.24138039 1.0218095 20923235
-0.15966977 0.24252617 1.0224447 20923235
-0.15846215 0.24243581 1.020564 20923235
-0.15725793 0.2423448 1.0186852 20923235
-0.1560569 0.24225307 1.0168085 20923235
-0.15337352 0.24114598 1.0095271 20923235
-0.15264069 0.24063654 1.0068297 20923235
-0.15236746 0.23971115 1.0033066 20923235
-0.15210427 0.23878379 0.99979013 20923235
-0.15185088 0.23785453 0.9962796 20923235
-0.1511493 0.237339 0.99360228 20923235
-0.14999472 0.23723827 0.99175483 20923235
-0.1488435 0.23713689 0.98990959 20923235
-0.14815836 0.23661813 0.98724288 20923235
-0.14701535 0.23651513 0.98540276 20923235
-0.14587563 0.23641153 0.98356473 20923235
-0.14520714 0.23588955 0.98090851 20923235
-0.14454536 0.23536627 0.97825623 20923235
-0.14294751 0.23567833 0.97724515 20923235
-0.14182268 0.23557185 0.97541672 20923235
-0.1407011 0.23546453 0.97359025 20923235
-0.13910644 0.23577601 0.97258145 20923235
-0.13798995 0.2356679 0.9707579 20923235
-0.13639705 0.23597902 0.96975011 20923235
-0.13480417 0.23629013 0.96874207 20923235
-0.13369411 0.23618065 0.96692312 20923235
-0.13258749 0.23607059 0.96510607 20923235
-0.13099782 0.23638102 0.96410042 20923235
-0.12989618 0.23627004 0.96228635 20923235
-0.12879772 0.23615822 0.96047479 20923235
-0.12672025 0.23689029 0.96027678 20923235
-0.12463955 0.23762298 0.96007693 20923235
-0.12255541 0.23835628 0.95987505 20923235
-0.12046809 0.23909022 0.95967072 20923235
-0.11837742 0.23982485 0.95946461 20923235
-0.11628341 0.24056004 0.95925629 20923235
-0.11468708 0.24087174 0.95824635 20923235
-0.113091 0.24118371 0.95723617 20923235
-0.17871891 0.23917504 1.0285298 20923235
-0.17665361 0.23990662 1.0283389 20923235
-0.17501107 0.24022754 1.0272998 20923235
-0.17336859 0.24054827 1.0262604 20923235
-0.171726 0.24086909 1.0252211 20923235
-0.17051466 0.24077746 1.0233382 20923235
-0.16887373 0.24109785 1.0222999 20923235
-0.16723301 0.24141845 1.0212617 20923235
-0.16559209 0.24173892 1.0202233 20923235
-0.16351344 0.24247316 1.0200243 20923235
-0.16143139 0.2432081 1.0198234 20923235
-0.16022839 0.24311475 1.0179458 20923235
-0.1585858 0.24343556 1.0169065 20923235
-0.15738785 0.24334134 1.0150319 20923235
-0.15307947 0.2425414 1.0067242 20923235
-0.15235229 0.24202697 1.0040315 20923235
-0.15208615 0.24109416 1.000514 20923235
-0.15137367 0.24057673 0.99783063 20923235
-0.15066792 0.24005803 0.9951514 20923235
-0.14950962 0.23995596 0.99330211 20923235
-0.14835446 0.23985326 0.99145502 20923235
-0.14766535 0.23933135 0.9887861 20923235
-0.1465186 0.2392271 0.98694384 20923235
-0.14490916 0.23954149 0.98592567 20923235
-0.14423475 0.23901653 0.98326653 20923235
-0.14356723 0.23849048 0.98061115 20923235
-0.1424353 0.2383832 0.97877854 20923235
-0.14130662 0.23827548 0.97694808 20923235
-0.14018127 0.23816688 0.97511983 20923235
-0.13905933 0.23805784 0.97329336 20923235
-0.13746314 0.23836958 0.97228348 20923235
-0.13586693 0.23868136 0.97127336 20923235
-0.13475151 0.23857091 0.96945137 20923235
-0.133157 0.23888245 0.96844232 20923235
-0.1320466 0.23877092 0.96662331 20923235
-0.13093938 0.23865898 0.9648065 20923235
-0.12983556 0.23854633 0.96299183 20923235
-0.12824596 0.2388567 0.96198583 20923235
-0.12616564 0.23959124 0.96178585 20923235
-0.12408201 0.24032663 0.96158373 20923235
-0.12199507 0.24106243 0.96137959 20923235
-0.11990494 0.24179909 0.961173 20923235
-0.11781127 0.2425362 0.96096474 20923235
-0.1157145 0.24327409 0.96075422 20923235
-0.17921574 0.23975758 1.023995 20923235
-0.17715566 0.24049021 1.0238074 20923235
-0.17509234 0.24122354 1.0236179 20923235
-0.17388381 0.24112925 1.0217373 20923235
-0.17267869 0.24103436 1.0198587 20923235
-0.17104444 0.24135357 1.0188247 20923235
-0.16941018 0.24167274 1.0177904 20923235
-0.16777603 0.24199192 1.0167564 20923235
-0.16570447 0.24272685 1.0165612 20923235
-0.16406853 0.24304639 1.0155263 20923235
-0.16243257 0.24336587 1.0144912 20923235
-0.16079666 0.24368536 1.013456 20923235
-0.15960471 0.24358791 1.011586 20923235
-0.1518095 0.24246818 0.99772567 20923235
-0.15064564 0.24236518 0.99587333 20923235
-0.14948516 0.24226156 0.99402314 20923235
-0.1478675 0.24257757 0.99299943 20923235
-0.14717409 0.24205226 0.99032897 20923235
-0.14648734 0.24152584 0.98766243 20923235
-0.1448763 0.24184057 0.98664296 20923235
-0.14419936 0.2413121 0.98398298 20923235
-0.14306043 0.24120435 0.98214608 20923235
-0.1419248 0.24109595 0.98031151 20923235
-0.14079241 0.24098679 0.97847927 20923235
-0.13966332 0.24087703 0.97664875 20923235
-0.13806215 0.24118978 0.97563565 20923235
-0.13693812 0.24107905 0.97380841 20923235
-0.13533846 0.24139144 0.97279632 20923235
-0.13421948 0.24127974 0.97097212 20923235
-0.13310347 0.24116732 0.96915025 20923235
-0.1315074 0.24147916 0.96814013 20923235
-0.12991114 0.24179092 0.96713012 20923235
-0.12880194 0.24167728 0.9653123 20923235
-0.12720738 0.24198869 0.96430331 20923235
-0.12512252 0.24272615 0.96410012 20923235
-0.12143645 0.24377637 0.96288365 20923235
-0.11934341 0.24451557 0.96267503 20923235
-0.11774386 0.24482793 0.96166307 20923235
-0.11564585 0.24556801 0.96145123 20923235
-0.11354447 0.24630877 0.96123755 20923235
-0.11194169 0.24662179 0.96022332 20923235
-0.10983527 0.24736351 0.96000659 20923235
-0.1077256 0.24810582 0.95978755 20923235
-0.1056127 0.24884877 0.95956635 20923235
-0.10298794 0.25002199 0.96013743 20923235
-0.17724045 0.24147141 1.0201305 20923235
-0.17603825 0.24137388 1.0182539 20923235
-0.17440893 0.24169216 1.017223 20923235
-0.17321153 0.24159363 1.01535 20923235
-0.17158394 0.24191155 1.01432 20923235
-0.16995628 0.24222951 1.0132903 20923235
-0.16789173 0.24296506 1.0130993 20923235
-0.16626249 0.24328323 1.0120683 20923235
-0.16463317 0.24360147 1.0110373 20923235
-0.16300389 0.2439197 1.0100064 20923235
-0.16137463 0.24423799 1.0089755 20923235
-0.15974531 0.24455619 1.0079447 20923235
-0.14992006 0.24414915 0.99391848 20923235
-0.14830227 0.24446505 0.99289495 20923235
-0.14714633 0.24435857 0.99104792 20923235
-0.146457 0.24382852 0.98838073 20923235
-0.14484431 0.24414349 0.98736006 20923235
-0.14369823 0.24403507 0.98551941 20923235
-0.14302386 0.24350218 0.98286152 20923235
-0.1418861 0.24339214 0.98102605 20923235
-0.14027992 0.24370582 0.98000973 20923235
-0.13914718 0.2435948 0.97817719 20923235
-0.13801761 0.2434831 0.97634709 20923235
-0.13641486 0.24379623 0.9753328 20923235
-0.13481195 0.24410915 0.97431868 20923235
-0.13368897 0.24399617 0.97249269 20923235
-0.13256952 0.24388257 0.97066849 20923235
-0.1309699 0.24419498 0.96965671 20923235
-0.12985532 0.24408036 0.96783561 20923235
-0.12825741 0.24439237 0.96682471 20923235
-0.12665959 0.24470454 0.96581352 20923235
-0.12457199 0.24544469 0.96560794 20923235
-0.11878384 0.24723983 0.9641766 20923235
-0.11508001 0.24829552 0.96294862 20923235
-0.11297575 0.24903882 0.96273261 20923235
-0.1118711 0.24892223 0.96091795 20923235
-0.10976354 0.24966615 0.96069998 20923235
-0.10765261 0.2504108 0.96047986 20923235
-0.10503211 0.25158724 0.96105266 20923235
-0.099771105 0.25394398 0.96218598 20923235
-0.097642064 0.2546922 0.9619543 20923235
-0.17818905 0.24160317 1.0147719 20923235
-0.17699616 0.24150176 1.0129023 20923235
-0.17537512 0.24181841 1.0118761 20923235
-0.17375417 0.24213502 1.0108504 20923235
-0.17213304 0.24245149 1.0098251 20923235
-0.17007558 0.24318779 1.0096381 20923235
-0.16801475 0.24392453 1.0094494 20923235
