# .PCD v0.7 - Point Cloud Data file format
VERSION 0.7
FIELDS x y z rgba
SIZE 4 4 4 4
TYPE F F F U
COUNT 1 1 1 1
WIDTH 809
HEIGHT 1
VIEWPOINT 0 0 0 1 0 0 0
POINTS 809
DATA ascii
-0.14063208 0.23429295 1.0364833 20275649
-0.14202379 0.23431599 1.0351717 20275649
-0.14353164 0.237225 1.0368714 20275649
-0.14437799 0.23787791 1.0349436 20275649
-0.1390015 0.23826927 1.043263 20275649
-0.13984109 0.23892388 1.0413427 20275649
-0.14710204 0.24032515 1.0322421 20275649
-0.14795594 0.24098012 1.0303078 20275649
-0.14881299 0.24163514 1.0283706 20275649
-0.14967282 0.24229008 1.0264313 20275649
-0.14280705 0.23944739 1.0417988 20275649
-0.14419453 0.23947015 1.0404913 20275649
-0.14558183 0.23949301 1.0391841 20275649
-0.1469696 0.2395159 1.0378766 20275649
-0.14835708 0.23953885 1.0365694 20275649
-0.14920436 0.24019527 1.0346427 20275649
-0.12677722 0.22248149 1.0579097 23773826
-0.10005267 -0.11435329 0.8202067 27206467
-0.10075478 -0.11277508 0.82079303 27206467
-0.0510993 -0.060179636 0.83685422 30704644
-0.017090857 -0.14222325 0.85786641 17425861
-0.01983878 -0.14264461 0.8579967 17425861
-0.0092436224 -0.14309461 0.84545231 20858502
-0.010903195 -0.12832713 0.86555374 24356679
-0.0099593848 -0.11340456 0.86382008 27789320
-0.045493782 -0.13853677 0.89319807 31287753
-0.033711247 -0.10980122 0.8849954 18008714
-0.034143291 -0.10860877 0.88838989 18008714
-0.023878148 -0.1251006 0.93978792 21441355
-0.026527738 -0.12521845 0.93924385 21441355
-0.023061866 -0.084410012 0.85803056 24939532
-0.02671547 -0.070723593 0.87606686 28437965
-0.019345885 -0.055459332 0.9042635 31870606
-0.027980313 -0.043465737 0.97636181 18591567
-0.030040815 -0.043778367 0.97571582 18591567
-0.015068576 -0.056546248 0.95634073 22024208
-0.014431015 -0.054705914 0.95541519 22024208
-0.07531257 -0.012557112 0.89061403 25522641
-0.075366586 -0.0070193186 0.89369041 25522641
-0.077997193 -0.0077129975 0.89377803 25522641
-0.077632144 -0.0062474608 0.89644474 25522641
-0.079307929 -0.0051240399 0.89846724 25522641
-0.080173895 -0.0047376007 0.89637035 25522641
-0.080395773 -0.0036437213 0.89975983 25522641
-0.086774737 -0.0039126426 0.89502966 25522641
-0.084996596 -0.0043642223 0.90541512 25522641
-0.085267708 -0.0036080331 0.9026013 25522641
-0.090174764 -0.003903091 0.89925712 25522641
-0.086079538 -0.0029022247 0.90670198 25522641
-0.087517515 -0.0028785244 0.90534723 25522641
-0.090999559 -0.004796192 0.91586488 25522641
-0.088330463 -0.0021836087 0.90944022 25522641
-0.089764088 -0.0021599829 0.90808946 25522641
-0.09149155 -0.0029863194 0.91641909 25522641
-0.08941032 -0.00073254853 0.91072375 25522641
-0.089905486 0.0010882914 0.91128105 25522641
-0.1457157 0.24085096 1.0159605 29020818
-0.15500145 0.24315096 1.0112894 32453459
-0.15426271 0.24263871 1.0085894 32453459
-0.15633622 0.24422625 1.0095177 32453459
-0.15396892 0.24402812 1.0057878 32453459
-0.15648673 0.24519256 1.0058826 32453459
-0.15413193 0.24498802 1.0021614 32453459
-0.15341277 0.24446386 0.9994753 32453459
-0.15224513 0.24435952 0.99762094 32453459
-0.15108088 0.24425462 0.99576885 32453459
-0.15430196 0.24593437 0.99854195 32453459
-0.15313567 0.24582779 0.9966886 32453459
-0.15081276 0.24561283 0.99298877 32453459
-0.14919679 0.2459285 0.99196601 32453459
-0.15331917 0.24675745 0.9930805 32453459
-0.15170471 0.24707273 0.99205893 32453459
-0.15029116 0.24830231 0.98744226 32453459
-0.14868173 0.24861655 0.98642379 32453459
-0.038726598 -0.13813895 0.83958578 19174420
-0.051797636 -0.071157783 0.86307847 22672853
-0.050769694 -0.068651132 0.8617298 22672853
-0.053509541 -0.068716317 0.86127597 22672853
-0.050788552 -0.066720225 0.8623721 22672853
-0.05522155 -0.066263586 0.85947734 22672853
-0.051370218 -0.064614363 0.86219978 22672853
-0.055804864 -0.064148694 0.85930932 22672853
-0.056388289 -0.062029999 0.85914248 22672853
-0.059142388 -0.062087461 0.85870278 22672853
-0.058595382 -0.060317539 0.86016172 22672853
-0.057618596 -0.056829199 0.85518849 22672853
-0.059813 -0.057060514 0.85556632 22672853
-0.059180371 -0.058191758 0.85999864 22672853
-0.064056009 -0.059422825 0.86355656 22672853
-0.058633335 -0.056425642 0.86145639 22672853
-0.064074986 -0.057474986 0.86420459 22672853
-0.059218362 -0.054296073 0.86129451 22672853
-0.063523233 -0.0557095 0.8656581 22672853
-0.059237331 -0.05234823 0.86194247 22672853
-0.069154389 -0.061744705 0.85498649 26105494
-0.043071121 -0.075978756 0.85974252 29603671
-0.046033517 -0.094408095 0.86329722 33036312
-0.050693572 -0.093039975 0.86261851 33036312
-0.047903836 -0.090379499 0.86230117 33036312
-0.054339349 -0.082839794 0.8604359 33036312
-0.057261959 -0.082107812 0.86403412 33036312
-0.059929267 -0.082651086 0.86417228 33036312
-0.05957742 -0.081104845 0.86687177 33036312
-0.060202695 -0.036538169 0.8811428 19757529
-0.035923928 -0.058209758 0.88096356 23255706
-0.031381108 -0.042937562 0.90083122 26688347
-0.032525629 -0.040662367 0.89984238 26688347
-0.044684075 -0.050499048 0.88128018 30186524
-0.045159429 -0.049381718 0.88468546 30186524
-0.0098115411 -0.10696493 0.89042562 16907741
-0.042336926 -0.10042841 0.91412348 20340382
-0.042826816 -0.098625854 0.91467518 20340382
-0.02603141 -0.10768526 0.90468591 23838559
-0.026309475 -0.10426703 0.90781754 23838559
-0.027484015 -0.10799333 0.91503531 27271200
-0.033545494 -0.10664239 0.91301364 27271200
-0.016100556 -0.10478934 0.8993395 30769633
-0.019204563 -0.1075761 0.91511911 17490594
-0.091557324 0.23983788 1.0713968 20923235
-0.095222011 0.23976666 1.0723436 20923235
-0.096624017 0.23978981 1.0710225 20923235
-0.097697601 0.24094281 1.0721438 20923235
-0.099685371 0.24033663 1.0714011 20923235
-0.10167049 0.23973036 1.0706613 20923235
-0.10306813 0.23975334 1.0693445 20923235
-0.10471936 0.24026778 1.0710468 20923235
-0.10611416 0.24029076 1.0697324 20923235
-0.10809004 0.23968244 1.0690002 20923235
-0.11006303 0.23907423 1.0682707 20923235
-0.11203307 0.23846591 1.067544 20923235
-0.11342366 0.23848867 1.0662341 20923235
-0.11309138 0.23960036 1.0686693 20923235
-0.11448057 0.23962331 1.0673606 20923235
-0.1164443 0.23901305 1.0666387 20923235
-0.11783169 0.23903596 1.0653312 20923235
-0.11979146 0.23842525 1.0646133 20923235
-0.12060682 0.23908156 1.0627165 20923235
-0.12256347 0.23847109 1.0620015 20923235
-0.1239496 0.23849398 1.0606952 20923235
-0.12533574 0.23851675 1.0593894 20923235
-0.12867109 0.23792905 1.0573752 20923235
-0.13005565 0.23795184 1.0560706 20923235
-0.13760601 0.23944485 1.0586782 20923235
-0.12409188 0.23966366 1.0746436 20923235
-0.1248935 0.24032688 1.0727639 20923235
-0.12626781 0.2403495 1.0714688 20923235
-0.12764238 0.24037221 1.0701737 20923235
-0.129584 0.23975426 1.0694687 20923235
-0.13370322 0.23982203 1.0655873 20923235
-0.13177006 0.23869047 1.0772276 20923235
-0.14728577 0.23739401 1.0691895 20923235
-0.14944454 0.238085 1.0660336 20923235
-0.15562861 0.2379328 1.064538 20923235
-0.1456015 0.2375026 1.0783105 20923235
-0.14694999 0.23752463 1.07704 20923235
-0.1482984 0.23754695 1.0757692 20923235
-0.14964692 0.23756918 1.0744987 20923235
-0.15099536 0.23759151 1.0732281 20923235
-0.15504114 0.23765802 1.069416 20923235
-0.15773807 0.2377024 1.0668747 20923235
-0.15908672 0.23772466 1.0656042 20923235
-0.16152401 0.23644662 1.065546 20923235
-0.16286974 0.23646879 1.0642781 20923235
-0.15177955 0.23732829 1.0768077 20923235
-0.15502058 0.23672077 1.0748723 20923235
-0.15581201 0.23739472 1.0730081 20923235
-0.15715633 0.23741677 1.0717416 20923235
-0.15850054 0.23743895 1.0704751 20923235
-0.15984471 0.23746121 1.0692084 20923235
-0.16118889 0.23748335 1.0679417 20923235
-0.16576259 0.23689771 1.0647504 20923235
-0.16710521 0.23691982 1.0634854 20923235
-0.16790985 0.23759401 1.061609 20923235
-0.17703407 0.23642254 1.0552485 20923235
-0.15256916 0.23705429 1.0803759 20923235
-0.15335424 0.23773003 1.0785191 20923235
-0.15469544 0.23775208 1.0772552 20923235
-0.15737794 0.23779631 1.0747278 20923235
-0.15926854 0.23716462 1.0740638 20923235
-0.16060792 0.23718682 1.0728011 20923235
-0.1624945 0.23655498 1.0721412 20923235
-0.16383301 0.23657706 1.0708802 20923235
-0.1657149 0.23594546 1.0702243 20923235
-0.16705172 0.23596743 1.0689642 20923235
-0.16784804 0.23664334 1.0670967 20923235
-0.16918673 0.23666543 1.0658355 20923235
-0.17052512 0.2366873 1.0645745 20923235
-0.17989402 0.23684177 1.0557468 20923235
-0.15470009 0.23679143 1.082674 20923235
-0.15603565 0.2368134 1.0814157 20923235
-0.15681817 0.23749095 1.0795622 20923235
-0.16004212 0.23687956 1.0776405 20923235
-0.16192631 0.23624599 1.0769813 20923235
-0.16326039 0.23626792 1.0757244 20923235
-0.16514029 0.2356343 1.0750692 20923235
-0.16592862 0.23631191 1.0732102 20923235
-0.16780569 0.23567817 1.0725579 20923235
-0.16913809 0.23570019 1.0713022 20923235
-0.17047085 0.23572218 1.0700464 20923235
-0.17126499 0.23639983 1.0681822 20923235
-0.17259924 0.23642182 1.0669253 20923235
-0.17339729 0.23709938 1.0650568 20923235
-0.17526717 0.23646581 1.0644112 20923235
-0.17660137 0.23648778 1.0631542 20923235
-0.17979942 0.23587584 1.0612569 20923235
-0.18113209 0.23589784 1.0600011 20923235
-0.18193762 0.23657569 1.058126 20923235
-0.16215281 0.23660532 1.0799518 20923235
-0.16348396 0.23662728 1.0786977 20923235
-0.16536181 0.23599172 1.0780432 20923235
-0.16669188 0.23601362 1.0767901 20923235
-0.16747756 0.23669317 1.0749347 20923235
-0.16935106 0.23605749 1.0742846 20923235
-0.17068093 0.23607939 1.0730314 20923235
-0.17147098 0.23675889 1.0711718 20923235
-0.17334037 0.23612326 1.0705256 20923235
-0.17466997 0.23614523 1.0692725 20923235
-0.17546473 0.23682475 1.0674088 20923235
-0.17679591 0.2368466 1.0661547 20923235
-0.17812721 0.23686859 1.0649004 20923235
-0.17998923 0.23623273 1.064261 20923235
-0.18184839 0.23559701 1.0636241 20923235
-0.18204002 0.23594493 1.0666213 20923235
-0.18336527 0.23596665 1.0653722 20923235
-0.18521832 0.23532903 1.0647404 20923235
-0.18012433 0.23558065 1.0727124 20923235
-0.18223532 0.23628539 1.0696108 20923235
-0.18408741 0.23564598 1.0689781 20923235
-0.10934598 -0.09978658 0.97620702 24421412
-0.10722368 -0.094092831 0.97766155 24421412
-0.11160871 -0.090471014 0.97044241 24421412
-0.063834533 -0.07916411 0.94596112 24421412
-0.061091021 -0.078930736 0.95310789 24421412
-0.060760535 -0.079826869 0.95653349 24421412
-0.064741477 -0.077711016 0.95513886 24421412
-0.087555014 -0.081829257 0.96567833 24421412
-0.091638304 -0.079714738 0.96436632 24421412
-0.059062451 -0.069830164 0.9491033 24421412
-0.058750123 -0.065579139 0.94093233 24421412
-0.059080109 -0.068014055 0.94970739 24421412
-0.057842456 -0.063178316 0.93964672 24421412
-0.057563446 -0.064121358 0.9430989 24421412
-0.061525784 -0.065459676 0.94720906 24421412
-0.058785848 -0.061920561 0.94214928 24421412
-0.098428346 -0.099489495 0.97753191 24421412
-0.098493829 -0.099410102 0.97401708 24421412
-0.099378251 -0.097762622 0.97658551 24421412
-0.098907784 -0.097613283 0.97391742 24421412
-0.099321693 -0.095816448 0.97381794 24421412
-0.096169062 -0.095280722 0.97537696 24421412
-0.089324474 -0.13104576 0.9997738 24421412
-0.091845065 -0.13044265 0.99473327 24421412
-0.076224074 -0.12283654 0.97213238 24421412
-0.087141559 -0.12833749 0.99741453 24421412
-0.091694236 -0.12967579 0.99978358 24421412
-0.091662034 -0.12911102 0.99715072 24421412
-0.078139454 -0.1188754 0.96061593 24421412
-0.07818909 -0.11830923 0.95790523 24421412
-0.087584391 -0.12670934 0.99791282 24421412
-0.09082666 -0.12750933 0.99884981 24421412
-0.090145707 -0.1266672 0.99549955 24421412
-0.084264785 -0.12363473 0.98640233 24421412
-0.079065412 -0.12087551 0.97799379 24421412
-0.077160344 -0.1189154 0.97047335 24421412
-0.079771936 -0.11944138 0.97067434 24421412
-0.081733927 -0.11969353 0.97015625 24421412
-0.079838783 -0.11830232 0.96528822 24421412
-0.082444564 -0.11882834 0.96549433 24421412
-0.088681906 -0.12535673 0.99912399 24421412
-0.089307681 -0.12506011 0.9972046 24421412
-0.083411902 -0.12143512 0.98547333 24421412
-0.0814659 -0.12003566 0.98065835 24421412
-0.080181748 -0.11891152 0.97654921 24421412
-0.084096178 -0.1194196 0.97552019 24421412
-0.086692497 -0.1199495 0.97573346 24421412
-0.08093825 -0.1168948 0.96652836 24421412
-0.087138787 -0.12232243 0.99484891 24421412
-0.0819107 -0.11895073 0.98383003 24421412
-0.083214641 -0.11892931 0.9826017 24421412
-0.083871335 -0.11863029 0.98065418 24421412
-0.085176423 -0.11860884 0.97942454 24421412
-0.085837409 -0.1183098 0.97747308 24421412
-0.086501226 -0.11801078 0.975519 24421412
-0.082678348 -0.1157686 0.96849161 24421412
-0.081753612 -0.11991302 0.99685949 24421412
-0.079753891 -0.11733624 0.98679429 24421412
-0.080406725 -0.11703548 0.98485166 24421412
-0.081711978 -0.11701402 0.9836219 24421412
-0.084313333 -0.11755111 0.98382622 24421412
-0.084322408 -0.11697096 0.98116225 24421412
-0.086273029 -0.1172288 0.98065215 24421412
-0.086933017 -0.11692796 0.97870272 24421412
-0.086953372 -0.11634766 0.97602779 24421412
-0.083134457 -0.11409086 0.96900493 24421412
-0.080309346 -0.11917854 1.0031228 24421412
-0.08093679 -0.11887641 1.0012052 24421412
-0.081566766 -0.1185742 0.9992848 24421412
-0.081543595 -0.11799099 0.99665338 24421412
-0.08086507 -0.11479241 0.98269969 24421412
-0.084763736 -0.1158954 0.98433286 24421412
-0.085419849 -0.11559277 0.98238808 24421412
-0.087383941 -0.11526863 0.97921056 24421412
-0.087405503 -0.1146846 0.97653693 24421412
-0.086792558 -0.11381937 0.9731347 24421412
-0.088105097 -0.1137978 0.97189814 24421412
-0.087505072 -0.11293223 0.96848363 24421412
-0.088185564 -0.11262915 0.96651548 24421412
-0.090138495 -0.11288884 0.96600229 24421412
-0.092721477 -0.11342985 0.96622151 24421412
-0.083327025 -0.11750064 1.001199 24421412
-0.075459406 -0.11117052 0.97944885 24421412
-0.080020204 -0.11256351 0.98177963 24421412
-0.087216377 -0.11273856 0.9763245 24421412
-0.087886125 -0.11243389 0.97436804 24421412
-0.089835405 -0.11269542 0.97385699 24421412
-0.081801474 -0.11501128 0.99958235 24421412
-0.077881008 -0.10975774 0.97943395 24421412
-0.087060496 -0.11019732 0.97343379 24421412
-0.089736998 -0.10516457 0.97372979 24421412
-0.098035887 -0.10833815 0.9804464 24421412
-0.08828336 -0.1026173 0.97207719 24421412
-0.097215533 -0.10610323 0.97950608 24421412
-0.10611297 -0.10958985 0.98696798 24421412
-0.11308134 -0.11219998 0.99228626 24421412
-0.12128393 -0.11539517 0.99908251 24421412
-0.12631111 -0.11712892 1.0022686 24421412
-0.081748933 -0.097706132 0.96466261 24421412
-0.093227431 -0.10239043 0.97495824 24421412
-0.11162739 -0.10970207 0.99060625 24421412
-0.12171765 -0.11380003 0.99957067 24421412
-0.06158635 -0.088382915 0.95033616 24421412
-0.061044678 -0.087472595 0.94689173 24421412
-0.081575081 -0.09571404 0.96446162 24421412
-0.090512812 -0.099243827 0.97186095 24421412
-0.098783523 -0.10247816 0.97856992 24421412
-0.10828431 -0.106305 0.98675734 24421412
-0.051201105 -0.081577912 0.93870693 24421412
-0.053872034 -0.0821504 0.93882507 24421412
-0.070527136 -0.089273863 0.95474881 24421412
-0.090335682 -0.097270101 0.97165304 24421412
-0.097970843 -0.10022676 0.97763222 24421412
-0.10620725 -0.10348172 0.9843623 24421412
-0.045300826 -0.07680738 0.93210143 24421412
-0.053716764 -0.080079466 0.93865103 24421412
-0.083766282 -0.092917554 0.96693903 24421412
-0.091424242 -0.095892057 0.97288686 24421412
-0.097790748 -0.098267712 0.97741824 24421412
-0.10287537 -0.10004443 0.98052555 24421412
-0.045656338 -0.075639948 0.93540519 24421412
-0.060562342 -0.081320442 0.94635075 24421412
-0.086127445 -0.092127621 0.9696129 24421412
-0.091879904 -0.094216131 0.9733997 24421412
-0.09698154 -0.096003525 0.9764846 24421412
-0.088485524 -0.09134876 0.97228318 24421412
-0.092335522 -0.092540227 0.97391266 24421412
-0.096804053 -0.094035313 0.97627348 24421412
-0.10256203 -0.095509104 0.97741944 24421412
-0.10636868 -0.096701205 0.97908956 24421412
-0.09342213 -0.091169529 0.97514421 24421412
-0.096627876 -0.092063405 0.97606379 24421412
-0.099824503 -0.092957392 0.976991 24421412
-0.10119022 -0.092303783 0.97307771 24421412
-0.096510872 -0.089452125 0.97317511 24421412
-0.10039376 -0.09002284 0.97214097 24421412
-0.10170788 -0.090001263 0.97090298 24421412
-0.10340753 -0.088948764 0.9728629 24421412
-0.10471858 -0.088927157 0.97162741 24421412
-0.10703419 -0.088192813 0.97431296 24421412
-0.079430386 -0.14020546 0.85378939 27854309
-0.082817622 -0.14031322 0.85251886 27854309
-0.078274734 -0.13846876 0.85607165 27854309
-0.078293703 -0.13653032 0.85671651 27854309
-0.071441956 -0.13322426 0.86418289 27854309
-0.068487391 -0.14689076 0.86449075 27854309
-0.076009765 -0.14913654 0.87097889 27854309
-0.087225705 -0.14895183 0.86041123 27854309
-0.080939606 -0.14847505 0.87411875 27854309
-0.08129625 -0.14469618 0.87442207 27854309
-0.087076306 -0.1441161 0.86626709 27854309
-0.079382882 -0.13856353 0.85286051 27854309
-0.085901737 -0.1425629 0.88019359 27854309
-0.087894425 -0.14277625 0.87966859 27854309
-0.081070498 -0.13722801 0.85499185 27854309
-0.085212097 -0.13606483 0.86662221 27854309
-0.082051858 -0.13361925 0.85609639 27854309
-0.067539871 -0.13055238 0.8626883 27854309
-0.072607622 -0.13197856 0.86600953 27854309
-0.081483379 -0.13434821 0.87113988 27854309
-0.084499091 -0.13379541 0.86559969 27854309
-0.081349552 -0.13133129 0.85507399 27854309
-0.080159262 -0.13183181 0.8693468 27854309
-0.0831891 -0.13127506 0.86379558 27854309
-0.080053121 -0.12879252 0.85326713 27854309
-0.079101175 -0.12779441 0.84877068 27854309
-0.074602634 -0.12533438 0.83952647 27854309
-0.071166426 -0.12738866 0.86400735 27854309
-0.075612158 -0.12859173 0.8665548 27854309
-0.083258227 -0.13050777 0.87012887 27854309
-0.083464891 -0.12999386 0.86723959 27854309
-0.083078742 -0.12923449 0.86356133 27854309
-0.081507728 -0.12798408 0.85830563 27854309
-0.07935521 -0.12648803 0.85224962 27854309
-0.076626167 -0.12474625 0.84539026 27854309
-0.073324591 -0.12275861 0.83772278 27854309
-0.079326779 -0.12750727 0.86810702 27854309
-0.081941977 -0.12797832 0.86833531 27854309
-0.082153901 -0.12746069 0.86544335 27854309
-0.081175759 -0.12644848 0.86097997 27854309
-0.079612806 -0.12518886 0.85572124 27854309
-0.078064248 -0.12392899 0.85044909 27854309
-0.074749261 -0.12192693 0.84280229 27854309
-0.079213798 -0.12546124 0.86787874 27854309
-0.081229165 -0.12568697 0.86732525 27854309
-0.081444755 -0.12516558 0.86443138 27854309
-0.081068933 -0.124395 0.86074972 27854309
-0.077721968 -0.12237895 0.85314167 27854309
-0.075587481 -0.1208607 0.84708172 27854309
-0.077899069 -0.12290991 0.86609638 27854309
-0.079318494 -0.1228865 0.86475891 27854309
-0.078942716 -0.12211044 0.86108035 27854309
-0.079172775 -0.12158526 0.85817552 27854309
-0.075835392 -0.11955436 0.85056627 27854309
-0.075987101 -0.12009486 0.86354017 27854309
-0.078011185 -0.12032401 0.86297572 27854309
-0.07644549 -0.11903708 0.8577351 27854309
-0.0766837 -0.11850802 0.8548246 27854309
-0.073357582 -0.11646235 0.84721321 27854309
-0.065185636 -0.11476781 0.85594618 27854309
-0.070842609 -0.11652528 0.86001086 27854309
-0.072878242 -0.11675616 0.85943496 27854309
-0.075509354 -0.11724158 0.85963994 27854309
-0.075745448 -0.11670893 0.85673326 27854309
-0.073262855 -0.11437029 0.84699351 27854309
-0.072930589 -0.11358258 0.84328032 27854309
-0.064480007 -0.11241779 0.85496181 27854309
-0.06893383 -0.11367547 0.85747063 27854309
-0.071574375 -0.11416438 0.85766482 27854309
-0.072247118 -0.11122496 0.84227914 27854309
-0.067630231 -0.11106912 0.85570884 27854309
-0.070273757 -0.11156166 0.85589814 27854309
-0.072314054 -0.11179607 0.85531586 27854309
-0.073341399 -0.10963476 0.84362733 27854309
-0.072660655 -0.10726786 0.84262902 27854309
-0.073485792 -0.10622746 0.84690601 27854309
-0.071981758 -0.10489377 0.84163296 27854309
-0.072486013 -0.10303993 0.84220058 27854309
-0.07690838 -0.098111987 0.85419846 27854309
-0.075779125 -0.092070274 0.85570216 27854309
-0.075457707 -0.091216646 0.85201603 27854309
-0.07483153 -0.090253055 0.85763025 27854309
-0.075688928 -0.089950867 0.85549384 27854309
-0.074780747 -0.088813156 0.85103446 27854309
-0.073828742 -0.086986914 0.85297215 27854309
-0.068726033 -0.08172749 0.84290057 27854309
-0.076892897 -0.13005218 0.85808921 27854309
-0.07476218 -0.1279301 0.85578609 27854309
-0.072080225 -0.12761356 0.85545933 27854309
-0.071932957 -0.12568778 0.85275346 27854309
-0.069954336 -0.12550758 0.85315329 27854309
-0.070501849 -0.12372173 0.8511821 27854309
-0.068526164 -0.12354342 0.85157949 27854309
-0.070468351 -0.12201981 0.8510716 27854309
-0.067098215 -0.12158736 0.8500064 27854309
-0.063736826 -0.12115521 0.84893316 27854309
-0.070434526 -0.12031791 0.85096091 27854309
-0.068458945 -0.12014379 0.85135859 27854309
-0.064399049 -0.11959129 0.84955591 27854309
-0.07109946 -0.11874031 0.85158008 27854309
-0.068425268 -0.11844388 0.8512482 27854309
-0.06506145 -0.1180235 0.8501783 27854309
-0.071764231 -0.11715879 0.85219932 27854309
-0.069786057 -0.11698843 0.85259968 27854309
-0.065723598 -0.11645169 0.85080051 27854309
0.0051338356 -0.14403783 0.8795386 31352486
0.008512428 -0.14356515 0.88890409 31352486
-0.017631704 -0.14529626 0.88299799 31352486
-0.018032176 -0.14588442 0.88578874 31352486
0.007660931 -0.1449306 0.90509135 31352486
-0.021422798 -0.14344001 0.881365 31352486
-0.023517506 -0.14372356 0.88164496 31352486
-0.022176826 -0.14853819 0.90688717 31352486
0.0033977386 -0.14299913 0.90253764 31352486
0.018646626 -0.13961041 0.90321475 31352486
0.016256696 -0.14046298 0.90620607 31352486
0.016786052 -0.13881828 0.90763879 31352486
0.020622311 -0.1358365 0.90416479 31352486
0.017689062 -0.13657713 0.90630537 31352486
-0.0068663899 -0.1369597 0.89556265 31352486
0.013642481 -0.13532706 0.90733933 31352486
0.0048107486 -0.13551846 0.90381986 31352486
-0.016919257 -0.1331057 0.88106513 31352486
0.01728121 -0.13366932 0.91023713 31352486
0.014721496 -0.13380221 0.90961522 31352486
0.012155553 -0.13393667 0.90899783 31352486
0.0058990698 -0.13397616 0.90609378 31352486
-0.03076846 -0.12911551 0.86438048 31352486
0.011021687 -0.13017024 0.90848458 31352486
-0.016719149 -0.12253664 0.87769336 31352486
-0.016340064 -0.11635448 0.8767367 31352486
-0.031492434 -0.11209604 0.86916637 31352486
-0.012900585 -0.12868474 0.88860708 31352486
-0.0094542969 -0.1282611 0.89001292 31352486
-0.0046861675 -0.12774569 0.89297366 31352486
-0.016392151 -0.12698957 0.88210213 31352486
-0.038062043 -0.12736964 0.86440456 31352486
-0.034032814 -0.12689912 0.86663401 31352486
-0.028686943 -0.12632988 0.87041998 31352486
-0.023321209 -0.12575662 0.87419337 31352486
-0.041037887 -0.12589985 0.8611747 31352486
-0.037016928 -0.12542298 0.86340797 31352486
-0.031680442 -0.12484331 0.86719739 31352486
-0.025671197 -0.12420942 0.87175542 31352486
-0.038050309 -0.1238072 0.86253226 31352486
-0.032191083 -0.11975015 0.86770022 31352486
-0.025537884 -0.11901915 0.87303603 31352486
-0.033877283 -0.11818466 0.86604327 31352486
-0.029184325 -0.11761332 0.86903787 31352486
-0.036859676 -0.1167465 0.86282343 31352486
-0.03477826 -0.11640694 0.86269855 31352486
-0.03996893 -0.11547913 0.86207074 31352486
-0.039838612 -0.11532357 0.85960418 31352486
-0.038414329 -0.11504551 0.85870314 31352486
-0.041645601 -0.11394005 0.86041337 31352486
-0.042165808 -0.11385266 0.85716736 31352486
-0.04204604 -0.11370334 0.85470849 31352486
-0.04202842 -0.11227829 0.86032122 31352486
-0.042547271 -0.11219675 0.85707587 31352486
0.01179938 -0.13524362 0.88929844 31352486
0.012990519 -0.13430065 0.88499832 31352486
-0.052125409 -0.13731858 0.84668857 31352486
0.0088777393 -0.13527121 0.89843446 31352486
0.0094215125 -0.13455278 0.89488322 31352486
0.0099567622 -0.13383421 0.89132392 31352486
0.011148557 -0.13288403 0.88702881 31352486
-0.049567848 -0.13430828 0.84336495 31352486
0.0089149326 -0.13268963 0.89545321 31352486
0.0074494928 -0.13266554 0.89407271 31352486
0.0093085915 -0.13147476 0.8890571 31352486
0.0098263174 -0.13075042 0.88548428 31352486
-0.0055838376 -0.13293934 0.88449907 31352486
-0.030031279 -0.12716225 0.83168739 31352486
0.0058615357 -0.13226131 0.90173858 31352486
0.0050717741 -0.1320022 0.89964211 31352486
0.0049454719 -0.13150784 0.89681786 31352486
0.0041487068 -0.13124862 0.89471495 31352486
0.004674986 -0.13051891 0.8911534 31352486
0.0032341629 -0.13062209 0.90165579 31352486
0.002444163 -0.13036111 0.89955986 31352486
0.0016511232 -0.13010013 0.89746147 31352486
0.0015180558 -0.12960204 0.89463305 31352486
-0.035632983 -0.12452706 0.83530313 31352486
-0.04386723 -0.12711868 0.84240961 31352486
-0.050846055 -0.12923522 0.84799695 31352486
0.0027312487 -0.12877175 0.90222198 31352486
0.0026053041 -0.12827027 0.89940304 31352486
0.0011471957 -0.12824617 0.89802885 31352486
0.0023369044 -0.12726671 0.89374834 31352486
-0.034918413 -0.12215722 0.83433867 31352486
-0.043150023 -0.12476892 0.84143639 31352486
-0.057688475 -0.12927499 0.85339528 31352486
0.0035595447 -0.12644035 0.9013443 31352486
0.0034302026 -0.12593496 0.89852357 31352486
-0.033401638 -0.12221172 0.85812265 31352486
-0.039885968 -0.11931726 0.83718103 31352486
-0.038904235 -0.12230472 0.86476564 31352486
-0.036000267 -0.12056575 0.85807067 31352486
-0.027602211 -0.1135572 0.82826 31352486
-0.031560868 -0.11451289 0.82991922 31352486
-0.035856918 -0.11452484 0.84819633 31352486
-0.02619113 -0.10872915 0.82636362 31352486
-0.043735981 -0.11747586 0.86736959 31352486
-0.03600125 -0.11186718 0.84508538 31352486
-0.027327076 -0.10705619 0.82771903 31352486
-0.029449999 -0.10728192 0.82706302 31352486
-0.042375445 -0.11487233 0.86566061 31352486
-0.040205494 -0.11149479 0.85024405 31352486
-0.037998721 -0.10995577 0.84426445 31352486
-0.034584612 -0.10791142 0.83673584 31352486
-0.034858733 -0.10738189 0.83379132 31352486
-0.036907628 -0.10994589 0.85574806 31352486
-0.039738163 -0.10857733 0.84637058 31352486
-0.036325112 -0.10651837 0.83884937 31352486
-0.048093617 -0.10949723 0.84386635 31352486
-0.035561696 -0.10730368 0.8540467 31352486
-0.035806209 -0.10676724 0.8511343 31352486
-0.039134234 -0.10751116 0.85202175 31352486
-0.040611476 -0.10748668 0.85062987 31352486
-0.041383475 -0.10587673 0.84185594 31352486
-0.045911178 -0.10713311 0.8442952 31352486
-0.049210474 -0.10787746 0.84520984 31352486
-0.035966411 -0.10328469 0.85444009 31352486
-0.03672722 -0.10165293 0.84568912 31352486
-0.036981404 -0.10030813 0.84918964 31352486
-0.037686959 -0.096501432 0.84022808 31352486
-0.038270935 -0.095975474 0.84742677 31352486
-0.037318468 -0.094889827 0.8429805 31352486
-0.039054558 -0.093524128 0.84508282 31352486
-0.036896303 -0.091896661 0.83910692 31352486
-0.044796154 -0.094611041 0.85541153 31352486
-0.040788785 -0.092165999 0.84718257 31352486
-0.037414938 -0.089989491 0.83969057 31352486
-0.046888769 -0.094113149 0.86115873 31352486
-0.043306306 -0.088356487 0.84693843 31352486
-0.03813608 -0.085332341 0.83716005 31352486
-0.011401385 -0.13838151 0.90342486 31352486
-0.01498769 -0.10938033 0.9243933 18073447
-0.0081413034 -0.10933041 0.93479162 18073447
-0.0041544307 -0.10859444 0.94109237 18073447
-0.00043256022 -0.10707411 0.94387794 18073447
-0.00073935278 -0.10773671 0.94656849 18073447
0.0003877189 -0.10630152 0.94877619 18073447
0.00094291382 -0.10472201 0.9501667 18073447
0.0026421901 -0.10345378 0.95318395 18073447
0.0049137678 -0.10235246 0.95701081 18073447
0.0040553417 -0.10286932 0.95886809 18073447
0.0060412269 -0.10095118 0.95920718 18073447
0.0057596993 -0.10162625 0.96187323 18073447
0.0051712822 -0.098238528 0.95548117 18073447
0.0071688574 -0.099557422 0.96140116 18073447
0.0068904292 -0.10023546 0.96406353 18073447
0.0065800007 -0.097687267 0.96115804 18073447
0.0057263803 -0.098208569 0.96301007 18073447
0.0031499546 -0.098247543 0.96243209 18073447
-0.00058637001 -0.097967945 0.96024263 18073447
0.0048468169 -0.095487028 0.95929456 18073447
0.0034147482 -0.095848627 0.96033961 18073447
0.00025673769 -0.095723026 0.95895898 18073447
-0.0014639441 -0.091954969 0.95095295 18073447
-0.0017657746 -0.092650257 0.95362872 18073447
-0.029580818 -0.089889586 0.97975981 18073447
-0.041485667 -0.087934256 0.97677517 18073447
-0.034184448 -0.10914428 0.97418183 18073447
-0.031417131 -0.10870966 0.9748103 18073447
-0.0068298429 -0.1183731 0.92435211 18073447
-0.0075939149 -0.11809603 0.92228991 18073447
-0.014347747 -0.12009984 0.92666322 18073447
-0.0013159961 -0.11425705 0.91850048 18073447
0.0024020523 -0.10793499 0.94052297 18073447
-0.021769211 -0.11221778 0.94045895 18073447
-0.02582857 -0.1132523 0.9419778 18073447
-5.7950616e-05 -0.10747126 0.94590157 18073447
-0.023583934 -0.11096419 0.94242305 18073447
-0.0081869513 -0.10693236 0.9459278 18073447
-0.026060775 -0.10998604 0.94509298 18073447
-0.031434536 -0.11157154 0.94803303 18073447
-0.041419104 -0.11503416 0.95596534 18073447
-0.011849806 -0.1087321 0.96081513 18073447
-0.014601842 -0.10924838 0.96088737 18073447
-0.014642075 -0.10868613 0.95818394 18073447
-0.015363023 -0.10839341 0.95617193 18073447
-0.014065877 -0.10729145 0.95206279 18073447
-0.025146335 -0.10823222 0.94695371 18073447
-0.030525655 -0.10982857 0.94988221 18073447
-0.036549762 -0.11169523 0.95353609 18073447
-0.0074942857 -0.10618878 0.96192139 18073447
-0.012977406 -0.10779444 0.96474606 18073447
-0.016406193 -0.1085859 0.96551055 18073447
-0.018471316 -0.10883463 0.96489662 18073447
-0.020533487 -0.10908326 0.96428543 18073447
-0.021243349 -0.10878889 0.96228451 18073447
-0.017917022 -0.10686513 0.95609623 18073447
-0.015416786 -0.10407966 0.9451341 18073447
-0.027623162 -0.10727048 0.94961435 18073447
-0.033658087 -0.10914973 0.95325071 18073447
-0.041657761 -0.11184452 0.95903116 18073447
-0.016178206 -0.10711809 0.96804816 18073447
-0.019599602 -0.10791516 0.96881646 18073447
-0.021658584 -0.10816582 0.96820742 18073447
-0.023039088 -0.10814305 0.96690673 18073447
-0.024419084 -0.10812032 0.96560627 18073447
-0.021763191 -0.10645718 0.96012419 18073447
-0.018453285 -0.10452026 0.95392758 18073447
-0.015163735 -0.102583 0.94771165 18073447
-0.015236095 -0.10201284 0.94498199 18073447
-0.019315973 -0.10308357 0.9464609 18073447
-0.026046067 -0.10524859 0.95076567 18073447
-0.038774371 -0.10930622 0.95873398 18073447
-0.047420129 -0.11229314 0.96522611 18073447
-0.018016383 -0.1059062 0.96996659 18073447
-0.020755365 -0.10643374 0.97004503 18073447
-0.023488745 -0.10696128 0.97012895 18073447
-0.024866328 -0.10693864 0.96883124 18073447
-0.026243672 -0.10691592 0.96753329 18073447
-0.024259791 -0.10551703 0.96275371 18073447
-0.022290871 -0.10411787 0.95796031 18073447
-0.018997326 -0.10216794 0.95175534 18073447
-0.017059997 -0.10076829 0.94693202 18073447
-0.020468399 -0.10157103 0.94770998 18073447
-0.03721267 -0.10730784 0.95985752 18073447
-0.045870259 -0.11031467 0.96632713 18073447
-0.015750453 -0.10361659 0.97043258 18073447
-0.018494174 -0.10414767 0.9705047 18073447
-0.020555004 -0.10440188 0.96989161 18073447
-0.023288801 -0.10493309 0.96997303 18073447
-0.02534233 -0.10518749 0.96936721 18073447
-0.02739276 -0.10544182 0.96876365 18073447
-0.026753709 -0.10458787 0.96537966 18073447
-0.026123151 -0.10373389 0.96198779 18073447
-0.02282615 -0.10177118 0.95579356 18073447
-0.021551147 -0.10063952 0.95167965 18073447
-0.024283782 -0.10117088 0.95176262 18073447
-0.018294051 -0.10211044 0.9703545 18073447
-0.020355985 -0.10236641 0.96973962 18073447
-0.022414431 -0.10262249 0.96912748 18073447
-0.025144354 -0.10315744 0.96921057 18073447
-0.027195856 -0.1034136 0.96860522 18073447
-0.027230874 -0.1028331 0.96591681 18073447
-0.027941242 -0.10253135 0.9639197 18073447
-0.027986154 -0.10195071 0.96122187 18073447
-0.01948069 -0.10004665 0.96889931 18073447
-0.021541849 -0.10030445 0.96828395 18073447
-0.024947211 -0.10112374 0.96905512 18073447
-0.027672008 -0.10166243 0.96914095 18073447
-0.028378651 -0.10135901 0.9671486 18073447
-0.030426875 -0.1016171 0.96654552 18073447
-0.031804413 -0.1015944 0.96524769 18073447
-0.019251361 -0.09858977 0.97143203 18073447
-0.019283816 -0.098001905 0.96874982 18073447
-0.019997045 -0.097696587 0.96675235 18073447
-0.024078354 -0.098803855 0.96820933 18073447
-0.028148219 -0.099911325 0.96967703 18073447
-0.030195758 -0.10017119 0.96907347 18073447
-0.023211405 -0.096476652 0.96736592 18073447
-0.02862443 -0.098160177 0.97021312 18073447
-0.032010838 -0.098990746 0.97099596 18073447
-0.016696408 -0.097207882 0.9850834 18073447
-0.019438311 -0.097757272 0.98514718 18073447
-0.022862419 -0.097998187 0.98324436 18073447
-0.022194579 -0.097117417 0.97990292 18073447
-0.022346154 -0.094142057 0.9665249 18073447
-0.028429732 -0.096122764 0.97005731 18073447
-0.03181608 -0.096958853 0.97083718 18073447
-0.015797153 -0.095483057 0.9869135 18073447
-0.017856225 -0.095748298 0.98629576 18073447
-0.021278754 -0.0965892 0.98703831 18073447
-0.024696574 -0.096832015 0.98514062 18073447
-0.021363184 -0.093596734 0.97373372 18073447
-0.020722821 -0.092709966 0.97036964 18073447
-0.023497984 -0.092664219 0.96775478 18073447
-0.029576614 -0.094657831 0.97128481 18073447
-0.03429769 -0.096075647 0.97344917 18073447
-0.025849089 -0.095383428 0.98635358 18073447
-0.026536301 -0.095071144 0.98438424 18073447
-0.024519458 -0.093599744 0.9796775 18073447
-0.022550628 -0.091525644 0.97228223 18073447
-0.022589937 -0.090923071 0.96960217 18073447
-0.02464883 -0.091190137 0.96898383 18073447
-0.028043851 -0.092037059 0.96974951 18073447
-0.027023837 -0.092727177 0.9822616 18073447
-0.02636905 -0.091829598 0.97891718 18073447
-0.026396707 -0.091223665 0.97625035 18073447
-0.026430115 -0.090617649 0.97357816 18073447
-0.029151514 -0.091178305 0.97365481 18073447
-0.033874825 -0.092614301 0.97580665 18073447
-0.039251253 -0.094342284 0.97866338 18073447
-0.049287409 -0.097507313 0.98373193 18073447
-0.029541895 -0.09125603 0.98218781 18073447
-0.028891787 -0.090353064 0.9788422 18073447
-0.029593214 -0.090036869 0.97686154 18073447
-0.031637892 -0.090307765 0.97625452 18073447
-0.037691653 -0.092340142 0.97978646 18073447
-0.041056365 -0.093198478 0.98057455 18073447
-0.032056317 -0.089788675 0.98211557 18073447
-0.033423647 -0.089766182 0.98082703 18073447
-0.036130086 -0.090334423 0.9809137 18073447
-0.040835589 -0.091789015 0.98307234 18073447
-0.044859499 -0.09294837 0.98455423 18073447
-0.049537241 -0.094403379 0.98673838 18073447
-0.058857515 -0.096701227 0.98850387 18073447
-0.035237536 -0.088622294 0.98273009 18073447
-0.037939981 -0.089194231 0.98281842 18073447
-0.04197225 -0.090360828 0.98428875 18073447
-0.045992896 -0.091527574 0.98576981 18073447
-0.050002024 -0.092694528 0.98726159 18073447
-0.053999484 -0.093861602 0.98876435 18073447
-0.056661531 -0.094434209 0.98889059 18073447
-0.03704913 -0.087485738 0.98463124 18073447
-0.039747909 -0.088061348 0.98472089 18073447
-0.04444243 -0.089534454 0.98687929 18073447
-0.047790974 -0.09040945 0.9876731 18073447
-0.050466508 -0.090985559 0.98778468 18073447
-0.05379951 -0.091860905 0.9885934 18073447
-0.03685008 -0.085453853 0.98447651 18073447
-0.03888151 -0.085732333 0.98387808 18073447
-0.04357639 -0.087214507 0.98603088 18073447
-0.046926215 -0.088095017 0.98682016 18073447
-0.048276231 -0.088072754 0.9855482 18073447
-0.050950691 -0.08865241 0.98565859 18073447
-0.050976083 -0.088028252 0.98300427 18073447
-0.049070209 -0.085876413 0.97559303 18073447
-0.036681637 -0.082790487 0.98166686 18073447
-0.041379705 -0.08428172 0.98381132 18073447
-0.044733956 -0.085167617 0.98459393 18073447
-0.046753079 -0.085448131 0.98400563 18073447
-0.048107341 -0.085425749 0.98272961 18073447
-0.029769942 -0.078333825 0.97733778 18073447
-0.033151492 -0.079224825 0.97809106 18073447
-0.037190214 -0.080420472 0.97953862 18073447
-0.041217119 -0.081616342 0.98099703 18073447
-0.044570327 -0.082507849 0.98177773 18073447
-0.028294191 -0.075024307 0.97315365 18073447
-0.038370311 -0.078349426 0.97809392 18073447
-0.043756828 -0.079530269 0.97826725 18073447
-0.023445025 -0.070794463 0.96822542 18073447
-0.03353864 -0.074139386 0.97313756 18073447
-0.041587681 -0.076560467 0.97604281 18073447
-0.006830737 -0.11195231 0.9186812 18073447
-0.013400301 -0.078032583 0.96093076 18073447
-0.011530712 -0.074235588 0.95825809 18073447
