# .PCD v0.7 - Point Cloud Data file format
VERSION 0.7
FIELDS x y z rgba
SIZE 4 4 4 4
TYPE F F F U
COUNT 1 1 1 1
WIDTH 1060
HEIGHT 1
VIEWPOINT 0 0 0 1 0 0 0
POINTS 1060
DATA ascii
-0.018627569 -0.16163483 0.83798355 29020818
-0.022639349 -0.16242164 0.83968735 29020818
-0.027271241 -0.16341144 0.84217823 20275649
-0.030628547 -0.16399577 0.84312803 23773826
-0.032719761 -0.16417453 0.8425287 23773826
-0.03418076 -0.16415045 0.84115213 23773826
-0.03523013 -0.16349345 0.83605021 23773826
-0.01575315 -0.15916395 0.83763975 19757529
-0.019773066 -0.15995798 0.83933198 29020818
-0.023781553 -0.16075215 0.84103507 29020818
-0.025254339 -0.16072792 0.83964747 29020818
-0.027986169 -0.16111293 0.83981323 29020818
-0.030084148 -0.16129342 0.83920664 23773826
-0.030925766 -0.16106448 0.83704358 23773826
-0.035957396 -0.16119668 0.83367264 23773826
-0.036804914 -0.16096762 0.83150399 23773826
-0.018170968 -0.15789622 0.8405295 29020818
-0.019650996 -0.15787187 0.83913511 29020818
-0.021130696 -0.15784743 0.83774072 29020818
-0.021979898 -0.15761659 0.83557141 29020818
-0.022203192 -0.15717915 0.83262318 29020818
-0.026825875 -0.15818742 0.83511257 29020818
-0.028302953 -0.15816316 0.83372098 23773826
-0.031654149 -0.15875858 0.83467007 23773826
-0.032503322 -0.15852758 0.8325007 29020818
-0.035221279 -0.15891659 0.83267766 23773826
-0.013387844 -0.15478981 0.83788669 29020818
-0.019316882 -0.15622306 0.84187567 29020818
-0.020795122 -0.15619865 0.84048253 29020818
-0.019747883 -0.15534115 0.8359977 29020818
-0.031538785 -0.15667772 0.83446336 23773826
-0.032390296 -0.15644506 0.83229339 29020818
0.01030539 -0.15947104 0.89954823 32777380
0.0035916418 -0.14921585 0.83034521 30186524
-0.0011210442 -0.15024099 0.83273923 30186524
-0.0083722472 -0.15210626 0.83820879 19757529
-0.013687015 -0.15334189 0.84140229 29020818
-0.017078832 -0.15394768 0.84230745 29020818
-0.019194171 -0.15413326 0.84168118 29020818
-0.020041481 -0.15389884 0.83951581 29020818
-0.018999174 -0.15303382 0.83503067 29020818
0.0098046511 -0.15762991 0.90011156 32777380
0.0024275035 -0.14750211 0.83169681 30186524
-0.0029203445 -0.14874822 0.83485311 30186524
-0.0069759041 -0.14957094 0.83649558 19757529
-0.012291953 -0.15081748 0.83968151 29020818
-0.016956002 -0.15185231 0.84211618 29020818
-0.020338953 -0.1524637 0.84302604 29020818
-0.022449419 -0.15265134 0.84240371 29020818
-0.022665426 -0.15220302 0.83946806 29020818
0.0014930069 -0.1462443 0.83599234 30186524
-0.002576381 -0.14707404 0.83761764 30186524
-0.006633684 -0.14790392 0.83925378 19757529
-0.0094054192 -0.14830667 0.83937198 19757529
-0.012807205 -0.14892322 0.84026116 19757529
-0.017468706 -0.14996722 0.84269297 29020818
-0.020216987 -0.1503703 0.84283286 29020818
-0.022959828 -0.15077358 0.8429783 29020818
-0.024436936 -0.15074918 0.84158671 29020818
-0.027171239 -0.15115249 0.84174007 20858502
-0.0058832169 -0.15076756 0.86967081 28761630
-0.0086521804 -0.15117392 0.86978918 21182423
-0.0094667971 -0.15093449 0.86765808 21182423
-0.0083391964 -0.15004903 0.86326522 25263453
-0.0065762252 -0.14894801 0.85810727 25263453
-0.006764099 -0.14849299 0.85520285 25263453
0.0020572841 -0.14502203 0.84169394 30186524
0.0037651509 -0.14392009 0.83648413 30186524
-0.0022337884 -0.1454034 0.84037858 30186524
-0.0043747872 -0.14559409 0.83972454 30186524
-0.0045988709 -0.14513841 0.83678621 30186524
-0.0086486936 -0.14597572 0.83842546 19757529
-0.011416525 -0.1463822 0.83854538 19757529
-0.013544545 -0.14657316 0.83790392 19757529
-0.018199235 -0.14762653 0.84033686 29020818
-0.022839651 -0.14868009 0.84278363 29020818
-0.025577039 -0.14908701 0.84293193 29020818
-0.029564932 -0.14992538 0.84462976 20858502
0.0078566521 -0.14571966 0.86322403 19498341
-0.004923597 -0.14892682 0.87162375 28761630
-0.0076942593 -0.14933673 0.87173843 28761630
-0.0098092854 -0.14952984 0.87110853 28761630
-0.0099733472 -0.14907143 0.86822838 25263453
-0.009495452 -0.14839569 0.86459017 25263453
-0.0077337772 -0.14728558 0.85943639 25263453
-0.0040517896 -0.1455235 0.85200346 25263453
0.0015371889 -0.14310929 0.84227931 19757529
-0.0031773746 -0.14417091 0.8446511 30186524
-0.0033930987 -0.14371163 0.84172195 30186524
-0.0068107396 -0.14433888 0.84259015 19757529
-0.0076690912 -0.14409694 0.84041888 19757529
-0.0098023564 -0.14428961 0.83977151 19757529
-0.0081241131 -0.14317805 0.83453858 19757529
-0.020198628 -0.14571318 0.83951515 20858502
-0.024200156 -0.14655867 0.84119576 29020818
-0.029445395 -0.14783925 0.84443021 20858502
-0.033421084 -0.1486851 0.8461352 20858502
-0.00014255941 -0.15380931 0.91666716 24162480
-0.0015673786 -0.15378582 0.91532463 24162480
-0.0029925853 -0.15376231 0.91398174 20664303
0.0012721419 -0.14533487 0.86761624 19498341
-0.0054304004 -0.14706182 0.87219459 28761630
-0.0082006156 -0.14747551 0.87230802 28761630
-0.0090144575 -0.14723241 0.87017912 28761630
-0.0013445169 -0.14253576 0.84880972 25263453
-0.0051921606 -0.14224279 0.84382313 30186524
-0.0092436224 -0.14309461 0.84545231 19757529
-0.0094608366 -0.14263171 0.84252429 19757529
-0.0065052509 -0.14107278 0.83577704 19757529
-0.019683927 -0.14292267 0.83561522 20858502
-0.02869989 -0.14553007 0.84346062 29020818
-0.03392753 -0.14682201 0.84670544 20858502
-0.037889659 -0.14767531 0.84841901 20858502
0.0064309686 -0.15165097 0.92115813 24162480
0.0022148937 -0.15204453 0.91990715 24162480
-0.00056706369 -0.15246171 0.92000729 24162480
-0.0026663095 -0.15265861 0.9193899 24162480
-0.0034113973 -0.15241477 0.91732711 24162480
-0.0034851283 -0.1519506 0.9145363 20664303
-0.00020097196 -0.15038431 0.90810579 20664303
-0.0012008846 -0.14411744 0.87042511 28761630
-0.0052850693 -0.14497614 0.87201971 28761630
0.0043637305 -0.13957921 0.84845406 19757529
0.0022152513 -0.13977534 0.84779048 19757529
-0.03193374 -0.14407413 0.84418893 20858502
-0.037146986 -0.14537722 0.8474409 20858502
-0.040476263 -0.14601684 0.84838635 30704644
0.010783985 -0.1487489 0.91948229 20664303
-0.0045782179 -0.15082902 0.9186042 24162480
-0.0033039302 -0.14991668 0.91436595 20664303
0.00064729154 -0.14811525 0.90721184 20664303
0.007929638 -0.14520207 0.89639789 33360233
-0.017090857 -0.14222325 0.85786641 33101301
-0.01983878 -0.14264461 0.8579967 33101301
-0.033290386 -0.14195639 0.84260267 20858502
-0.037871689 -0.14304745 0.84508431 20858502
-0.041818291 -0.14391568 0.84680426 30704644
0.017885819 -0.14493313 0.91497189 21830009
0.010971323 -0.14670041 0.91932589 20664303
0.0054437965 -0.14802018 0.9222694 24162480
-0.0024507195 -0.14765495 0.91347224 20664303
0.0014938861 -0.14583883 0.9063198 20664303
0.0087667555 -0.14290169 0.89551067 27012268
0.011186674 -0.14106035 0.88692158 33360233
0.011713162 -0.1403636 0.88334197 26429415
0.012231126 -0.13966665 0.87975407 26429415
0.012077436 -0.13919382 0.87689203 26429415
0.0099331588 -0.13939366 0.87622994 26429415
-0.014207155 -0.13970143 0.85756016 33101301
-0.010202706 -0.13553458 0.83687788 19757529
-0.033408478 -0.13938506 0.83946806 30704644
-0.038604274 -0.14071025 0.84272432 20858502
-0.041927695 -0.14136103 0.84366882 30704644
0.031962857 -0.13930354 0.90619153 16777216
0.0042688698 -0.14643055 0.92354053 24162480
-0.00055743754 -0.14753589 0.92578143 24162480
-0.0002541393 -0.14493418 0.91113335 20664303
0.0043518692 -0.14287725 0.90325499 33360233
0.010271594 -0.14036798 0.89389902 27012268
0.012817755 -0.13898818 0.8881526 33360233
0.011344895 -0.13896391 0.886765 33360233
0.012534216 -0.13803554 0.88245487 33360233
0.01171945 -0.13778523 0.88032979 26429415
0.016865745 -0.13550013 0.87160242 26429415
0.013387784 -0.13615379 0.87239844 26429415
-0.0064868331 -0.14032894 0.87946635 18915488
-0.011520475 -0.13669136 0.85435957 33101301
-0.025695592 -0.1395385 0.858652 33101301
-0.019573882 -0.13679561 0.84812886 33036312
-0.033538431 -0.13680267 0.8363288 24356679
-0.038726598 -0.13813895 0.83958578 30704644
-0.0017273873 -0.1459592 0.92704993 24162480
-0.0045011193 -0.14639109 0.92714959 24162480
-0.0059161335 -0.14636776 0.92581648 24162480
0.011104122 -0.13805118 0.89301676 33360233
0.011640981 -0.13734362 0.88945276 33360233
0.011502281 -0.13686371 0.8866092 33360233
0.012023106 -0.13615593 0.88303018 33360233
0.020497516 -0.13271347 0.87066656 26429415
0.012212232 -0.13448739 0.87371236 26429415
0.00017662346 -0.13810995 0.88407701 18915488
-0.0096060634 -0.13938165 0.882999 18915488
-0.008454904 -0.13844541 0.87865752 18915488
-0.025569022 -0.13744709 0.85846227 33101301
-0.019454703 -0.13468209 0.84794468 33036312
-0.033679917 -0.13420898 0.83318478 24356679
-0.044024572 -0.13690418 0.83971649 30704644
0.0087127835 -0.13735831 0.89858997 27012268
0.01126574 -0.13595667 0.89286238 33360233
0.01179938 -0.13524362 0.88929844 33360233
0.012990519 -0.13430065 0.88499832 33360233
-0.003110081 -0.1366823 0.8847388 18915488
-0.0065400898 -0.13734771 0.88557374 18915488
-0.0079984218 -0.13732372 0.88419974 18915488
-0.010109574 -0.13752958 0.88356608 18915488
-0.010915011 -0.13727567 0.88145173 18915488
-0.019967705 -0.13279513 0.84852213 27271200
-0.041462362 -0.13388479 0.83640248 30704644
0.0094215125 -0.13455278 0.89488322 33360233
0.0099567622 -0.13383421 0.89132392 33360233
0.011148557 -0.13288403 0.88702881 29344739
-0.0063888729 -0.13526213 0.88540405 18915488
-0.0085026026 -0.13546976 0.88476717 18915488
-0.010613039 -0.13567746 0.88413286 18915488
-0.018588632 -0.13021195 0.84681916 27271200
-0.018189013 -0.12949109 0.84313172 27271200
-0.027661353 -0.12836528 0.82878894 24939532
-0.029159918 -0.12834057 0.82737684 24939532
-0.033118382 -0.12924519 0.82906532 24356679
0.018818483 -0.13138704 0.89666384 27012268
0.0099508911 -0.13392812 0.90319675 27012268
0.0074494928 -0.13266554 0.89407271 29344739
0.0093085915 -0.13147476 0.8890571 29344739
0.0098263174 -0.13075042 0.88548428 23579627
-0.0055838376 -0.13293934 0.88449907 23579627
-0.0076997131 -0.13314879 0.88385898 22478398
-0.017212078 -0.12761769 0.84511954 27271200
-0.018705338 -0.12759316 0.84371275 27271200
-0.016433835 -0.12616488 0.83773208 27271200
-0.030031279 -0.12716225 0.83168739 24939532
0.030562386 -0.12848428 0.90202099 23126240
0.018308863 -0.12951291 0.89723736 27012268
0.012133196 -0.13113397 0.90088558 27012268
0.0086586326 -0.13181505 0.90166909 27012268
0.0041487068 -0.13124862 0.89471495 33360233
0.004674986 -0.13051891 0.8911534 29344739
0.0047219694 -0.12830463 0.87902582 23579627
-0.015209273 -0.12477688 0.84266406 27271200
-0.017964572 -0.12522361 0.84277284 27271200
-0.016952813 -0.12425584 0.83831644 27271200
-0.015952766 -0.12328787 0.83384889 27271200
-0.018084034 -0.12349885 0.83319306 23838559
-0.039061487 -0.12733719 0.83641917 24356679
0.034381315 -0.12617639 0.90397537 23126240
0.0328971 -0.12615195 0.90257674 23126240
0.028006688 -0.12731111 0.90472603 23126240
0.020411417 -0.12941739 0.90973216 25328186
0.018268749 -0.12963006 0.90906471 25328186
0.018160269 -0.12913236 0.90625948 25328186
0.0088237971 -0.1297224 0.90151674 27012268
0.0046894103 -0.13064605 0.90302694 24227213
0.0015180558 -0.12960204 0.89463305 33360233
0.0033618957 -0.1283927 0.88961351 29344739
0.0038724393 -0.12765735 0.88604015 23579627
0.0070066899 -0.12597328 0.87953341 23579627
0.0068373233 -0.12547466 0.87667108 23579627
0.004696399 -0.12568736 0.87600529 23579627
0.0080370158 -0.11929598 0.84401637 27854309
-0.010444552 -0.1214708 0.84011644 27271200
-0.014468968 -0.12239634 0.84173036 27271200
-0.017853945 -0.12308437 0.84259492 27271200
-0.016219199 -0.1218716 0.83737808 27271200
-0.013974041 -0.12042091 0.83138514 27271200
-0.017357677 -0.12110903 0.83225131 23838559
-0.020732716 -0.1217972 0.83312565 23838559
0.036150202 -0.1245768 0.90805346 23126240
0.033297256 -0.12502936 0.90806609 23126240
0.031133458 -0.12524348 0.90737766 23126240
0.026926443 -0.12617332 0.90881521 23126240
0.022050217 -0.12734166 0.9109723 25328186
0.013791665 -0.12970328 0.91669458 25328186
0.0089512616 -0.13087249 0.91888577 31676407
0.0075073987 -0.13084865 0.91752535 31676407
0.0074133724 -0.13034758 0.91473609 31676407
0.005085364 -0.12955987 0.90849143 24227213
0.0036341101 -0.12953603 0.9071241 24227213
0.0028509349 -0.12927338 0.90503579 24227213
0.0026053041 -0.12827027 0.89940304 24227213
0.0011471957 -0.12824617 0.89802885 24227213
0.0023369044 -0.12726671 0.89374834 27012268
0.0041754693 -0.12604821 0.88872898 29344739
0.0040222853 -0.1255461 0.88588381 23579627
0.010078043 -0.11640443 0.84162563 27854309
-0.016874179 -0.12120553 0.84458834 27271200
-0.0196262 -0.12165982 0.84469622 27271200
-0.019242734 -0.12091676 0.84100622 27271200
-0.013248339 -0.11801837 0.83045 27271200
-0.015387356 -0.11823277 0.82978493 27271200
-0.018766344 -0.11892643 0.83065206 23838559
-0.021517009 -0.11938071 0.83076119 23838559
0.032995775 -0.12415767 0.91423696 23126240
0.032207504 -0.12389316 0.9121452 23126240
0.032100931 -0.1233882 0.90934628 23126240
0.029939488 -0.12360416 0.9086588 23126240
0.018918708 -0.12694493 0.91716546 25328186
-0.001854673 -0.13163456 0.92457908 17814515
-0.0026096851 -0.13137057 0.92251819 17814515
-0.0033674687 -0.13110647 0.92045492 24227213
0.00056289136 -0.1291585 0.91336352 24227213
0.0017953366 -0.1281724 0.9091273 24227213
0.0030160397 -0.12718621 0.90488034 24227213
0.0035595447 -0.12644035 0.9013443 24227213
0.0034302026 -0.12593496 0.89852357 24227213
0.0019689053 -0.12591091 0.89714682 27012268
0.0024922341 -0.12516475 0.89359182 27012268
0.0043269247 -0.123937 0.88857383 29344739
0.012756109 -0.11325731 0.83849442 27854309
-0.020532966 -0.12050825 0.84895796 27271200
-0.023276716 -0.12096617 0.84907132 27271200
-0.022887781 -0.12021786 0.84538996 27271200
-0.014043331 -0.11558325 0.82808578 23838559
-0.01928848 -0.11700643 0.8312397 23838559
-0.020798922 -0.11698162 0.8298167 23838559
-0.023545355 -0.11743947 0.82992744 23838559
0.028452948 -0.12424459 0.92179698 25328186
0.026303515 -0.12446253 0.92111987 25328186
0.027584299 -0.12346996 0.91693348 25328186
0.026801303 -0.12320358 0.91484767 23126240
0.02123718 -0.12463242 0.91769475 25328186
0.0060821921 -0.12894446 0.9276852 18397368
-9.9405646e-05 -0.13061646 0.93129843 17814515
-0.0028767437 -0.13107756 0.93137819 17814515
-0.0050442964 -0.13078851 0.92798764 17814515
-0.0064665228 -0.13076505 0.9266476 17814515
-0.0065463632 -0.13025692 0.92387575 17814515
-0.003283754 -0.12853667 0.91751128 24227213
-4.1767955e-05 -0.12681615 0.9111281 24227213
0.001846686 -0.12558016 0.90616602 24227213
0.003720805 -0.12434394 0.90119046 24227213
0.0049166232 -0.12334987 0.89692372 27012268
0.0047759563 -0.12284072 0.89409459 27012268
0.006612435 -0.12160389 0.88908345 29344739
0.005796358 -0.12133696 0.88696623 29344739
-0.033401638 -0.12221172 0.85812265 20405115
-0.018922195 -0.11535437 0.83401245 23838559
-0.020431042 -0.11532957 0.83259094 23838559
-0.021320716 -0.11506151 0.8304044 23838559
-0.022830844 -0.11503659 0.82898128 23838559
-0.024957463 -0.11525498 0.82832605 28437965
0.021756038 -0.12458037 0.92865807 25328186
0.020306394 -0.12455652 0.92729217 25328186
0.01885663 -0.12453265 0.92592639 18397368
0.021508768 -0.12304472 0.92034143 25328186
0.0083817095 -0.12665728 0.92818183 25392919
0.0028697401 -0.12809792 0.93107194 18397368
-0.001269415 -0.12905075 0.9325611 17814515
-0.0060733408 -0.13024789 0.934771 17814515
-0.00897412 -0.1296896 0.92934328 27595121
-0.0097213537 -0.12942198 0.92729205 27595121
-0.0064566582 -0.12768903 0.92093712 24227213
-0.0012092143 -0.12522298 0.91240865 24227213
0.0020109564 -0.12348931 0.90601176 24227213
0.0072049648 -0.12102231 0.89743304 29344739
0.0077268332 -0.12026522 0.89388281 29344739
0.0075777918 -0.11975228 0.89104807 29344739
0.0054388195 -0.11052791 0.84053028 27854309
-0.031389982 -0.12115218 0.86510915 21765276
-0.03348133 -0.12137299 0.86448598 21765276
-0.038073242 -0.12257362 0.86689603 23903292
-0.038904235 -0.12230472 0.86476564 23903292
-0.036000267 -0.12056575 0.85807067 21765276
-0.025204673 -0.11385187 0.83186632 28437965
-0.026094884 -0.11358201 0.82968026 28437965
0.019260332 -0.1239899 0.93407375 18397368
0.016443118 -0.12445768 0.93411201 18397368
0.012945756 -0.12517124 0.93485516 18397368
0.0059136897 -0.12608373 0.93361443 18397368
0.0038040727 -0.12630603 0.93297297 18397368
-0.00033886731 -0.12726617 0.93445438 18397368
-0.00040639937 -0.12675083 0.93169838 17814515
-0.0058864206 -0.12820303 0.93461221 17814515
-0.0086517483 -0.12867165 0.93469924 17814515
-0.010135904 -0.128133 0.93060833 27595121
-0.010881916 -0.12786365 0.92855901 27595121
-0.0096252412 -0.126856 0.92435819 27659854
-0.0017081052 -0.12338734 0.91297048 24227213
0.011194751 -0.11691593 0.89012569 29344739
0.01103656 -0.11639912 0.88728398 29344739
0.0023632348 -0.10957222 0.84410912 27854309
-0.037172616 -0.12254604 0.87820852 23903292
-0.039247558 -0.12276895 0.87759978 23903292
-0.040691361 -0.1227451 0.8762393 24486145
-0.041508228 -0.12247457 0.87412339 23903292
-0.042527497 -0.12168663 0.86912453 23903292
-0.04273203 -0.12116907 0.86623913 23903292
-0.041079417 -0.11991084 0.86106473 20405115
-0.027575284 -0.11267807 0.83474773 28437965
-0.026615888 -0.11166563 0.83026665 28437965
-0.026895508 -0.1111468 0.82731068 28437965
-0.029630661 -0.11161599 0.8274262 28437965
0.019514188 -0.12242753 0.93668944 18397368
0.015319869 -0.12339401 0.93811828 18397368
0.0097633153 -0.12485589 0.94095379 18397368
0.0034903139 -0.12604704 0.9417693 18397368
0.0027535111 -0.12577602 0.93972987 18397368
0.00065149367 -0.12600034 0.9390946 18397368
-8.8140368e-05 -0.12572917 0.93705267 18397368
-0.00015224516 -0.12521031 0.93430144 18397368
-0.00089882314 -0.12493909 0.93225282 17814515
-0.0029993802 -0.12516338 0.93161899 17814515
-0.0077925473 -0.12637895 0.93382865 24810066
-0.010625228 -0.12633225 0.93115944 27595121
-0.01204209 -0.12630901 0.92982501 27595121
0.0031099319 -0.10714068 0.84320992 27854309
-0.013653412 -0.11307826 0.8597005 32259260
-0.049184144 -0.12466148 0.88944757 24486145
-0.047467813 -0.12339523 0.88433892 24486145
-0.043651819 -0.12009232 0.87044632 23903292
-0.044477865 -0.11981978 0.86832267 23903292
-0.042204589 -0.11830384 0.86239356 20405115
-0.035856918 -0.11452484 0.84819633 20405115
-0.02619113 -0.10872915 0.82636362 28437965
-0.028927818 -0.10920192 0.82647508 28437965
0.023911104 -0.11937248 0.93514103 18397368
0.01625897 -0.12159312 0.94002885 18397368
0.00030873716 -0.12576282 0.94785148 28308243
-0.0018808395 -0.12494446 0.94175547 24810066
-0.0019374937 -0.12442213 0.93901402 24810066
-0.00064428151 -0.12340036 0.93485564 18397368
0.0026662499 -0.12162989 0.92856544 25392919
0.0012326092 -0.12160631 0.92721492 25392919
-0.0042418391 -0.12308051 0.93012208 17814515
-0.0063389391 -0.1233066 0.92949003 27595121
-0.0084329098 -0.12353289 0.92886132 27595121
-0.010524109 -0.12375916 0.92823476 27595121
0.00092118979 -0.11195395 0.87718654 18980221
-0.012899518 -0.11068333 0.85878742 32259260
-0.051725 -0.12308028 0.88941407 24486145
-0.048139393 -0.12105357 0.88203901 24486145
-0.044775367 -0.11850168 0.87176716 23903292
-0.043735981 -0.11747586 0.86736959 23903292
-0.042708665 -0.11644991 0.86296099 20405115
-0.04007107 -0.11414676 0.85334843 20405115
-0.03600125 -0.11186718 0.84508538 21441355
-0.027327076 -0.10705619 0.82771903 28437965
-0.029449999 -0.10728192 0.82706302 28437965
0.023410127 -0.11753144 0.93570465 18397368
0.0040173084 -0.12351333 0.94966739 28308243
0.00054596364 -0.12424394 0.95042616 28308243
-0.0022319704 -0.12472319 0.95049495 28308243
-0.0029551238 -0.12444873 0.94847041 28308243
-0.002318278 -0.12367157 0.94504124 28308243
-0.0016899258 -0.12289426 0.94160372 24810066
-0.0024277121 -0.12261954 0.9395656 24810066
-0.0018134564 -0.12184196 0.93611449 18397368
0.0021707565 -0.11980709 0.92912346 25392919
0.0041086525 -0.11852629 0.92423373 25392919
-0.0020427555 -0.12026286 0.92783982 27659854
-0.0048164278 -0.12074227 0.92791277 27659854
-0.0062443763 -0.1207187 0.92656714 27659854
-0.0083407909 -0.12094676 0.92593497 27659854
-0.0064314753 -0.11966545 0.92101818 27659854
-0.0034782141 -0.11393775 0.89425164 25911295
-0.0026645362 -0.11185067 0.88427299 18980221
-0.0021920055 -0.11107077 0.88068867 18980221
-0.047384307 -0.11872824 0.88108832 24486145
-0.044452354 -0.11693855 0.8744486 23903292
-0.043408141 -0.11590542 0.87005979 23903292
-0.042375445 -0.11487233 0.86566061 23903292
-0.04197371 -0.1140912 0.86200958 20405115
-0.040344402 -0.11280522 0.85682881 20405115
-0.041196257 -0.11252867 0.85468304 20405115
-0.040205494 -0.11149479 0.85024405 20405115
-0.034584612 -0.10791142 0.83673584 28437965
-0.034858733 -0.10738189 0.83379132 28437965
0.0083839744 -0.12047437 0.94808155 28308243
0.00078125298 -0.12272865 0.95299739 28308243
-0.0026827902 -0.12346471 0.95375973 28308243
-0.004770264 -0.12369473 0.95313507 28308243
-0.0034419149 -0.12265904 0.94901794 28308243
-0.0028065592 -0.12187638 0.94559067 28308243
-0.0021795779 -0.12109353 0.94215482 24810066
-0.0029177219 -0.12081701 0.94011718 24810066
0.00040180981 -0.11902095 0.93384999 17814515
0.0037010163 -0.11722463 0.92756385 25392919
0.006876722 -0.11489742 0.91847724 25392919
-0.0012840778 -0.11740682 0.9242087 27659854
-0.0047291964 -0.11814322 0.92498916 27659854
-0.0068298429 -0.1183731 0.92435211 27659854
-0.0051275194 -0.11073393 0.8870346 18980221
-0.0045683235 -0.10809918 0.87414032 18980221
-0.042458624 -0.11408462 0.87199169 23903292
-0.041422144 -0.11304418 0.8675999 23903292
-0.03667447 -0.11047848 0.85865194 20405115
-0.036907628 -0.10994589 0.85574806 21441355
-0.037146702 -0.1094132 0.85283858 21441355
-0.040715545 -0.10961879 0.85081816 20405115
-0.039738163 -0.10857733 0.84637058 20405115
-0.036325112 -0.10651837 0.83884937 28437965
-0.03842847 -0.10674813 0.83820963 28437965
-0.04357326 -0.10824975 0.84141481 21441355
-0.065185636 -0.11476781 0.85594618 31287753
-0.070842609 -0.11652528 0.86001086 31287753
-0.0045711547 -0.12165736 0.95298356 28308243
-0.0019332618 -0.11957113 0.94474024 28308243
-0.00063164532 -0.11852772 0.94060236 24810066
-0.0020525008 -0.11850432 0.93926388 24810066
-0.00076816976 -0.11746071 0.93510944 24810066
-0.00084494054 -0.11692693 0.93235499 27659854
-0.00054137409 -0.11453602 0.92057127 25392919
-0.0013159961 -0.11425705 0.91850048 25392919
-0.0072873533 -0.10830195 0.88337022 18980221
-0.0061790496 -0.10725538 0.87905002 25911295
-0.038818836 -0.10991206 0.86438864 20987968
-0.035943195 -0.10809604 0.85771066 20987968
-0.035561696 -0.10730368 0.8540467 21441355
-0.035806209 -0.10676724 0.8511343 20405115
-0.039134234 -0.10751116 0.85202175 21441355
-0.040611476 -0.10748668 0.85062987 20405115
-0.040863216 -0.10695014 0.84771073 20405115
-0.037452683 -0.10487662 0.84019548 21441355
-0.041383475 -0.10587673 0.84185594 21441355
-0.064480007 -0.11241779 0.85496181 31287753
-0.06893383 -0.11367547 0.85747063 31287753
0.0010370463 -0.11702516 0.94453055 28308243
-0.00038225949 -0.11700181 0.94319326 24810066
-0.0082664192 -0.10722238 0.88752234 25911295
-0.009091109 -0.10694076 0.88540548 18980221
-0.0073364973 -0.10562948 0.8803584 25911295
-0.0081724077 -0.10534763 0.87823051 25911295
-0.03746213 -0.1072774 0.86269331 20987968
-0.035213694 -0.10570625 0.85677153 21441355
-0.034218892 -0.10465045 0.85234874 21441355
-0.035085246 -0.10436815 0.85019243 18591567
-0.037799641 -0.10485952 0.85031468 20405115
-0.038667277 -0.10457722 0.84815753 20405115
-0.039537773 -0.10429474 0.8459968 18591567
0.0053135008 -0.1134102 0.94020122 28308243
0.0038842708 -0.11338671 0.93885452 28308243
-0.019230068 -0.11192635 0.91171926 20729036
-0.010070935 -0.10587028 0.88955206 25911295
-0.0096000135 -0.10506845 0.88597852 18980221
-0.0084929168 -0.10400718 0.88166547 18980221
-0.0093280673 -0.10372357 0.87953961 26494148
-0.037349463 -0.10515101 0.86251026 20987968
-0.035966411 -0.10328469 0.85444009 20987968
-0.035598144 -0.10248116 0.85077006 18591567
-0.037082419 -0.10245671 0.84937143 18591567
-0.03672722 -0.10165293 0.84568912 18591567
-0.038215607 -0.10162839 0.8442865 18591567
0.0055001229 -0.11133257 0.94006079 28308243
0.0033901781 -0.11156943 0.93941063 28308243
-0.017390296 -0.11503081 0.93856245 29150284
-0.018799722 -0.11500766 0.93723458 29150284
-0.012353957 -0.10533278 0.89514047 25911295
-0.011873081 -0.10452553 0.89157927 25911295
-0.010754868 -0.10345715 0.88728082 25911295
-0.010292947 -0.10264974 0.88370234 18980221
-0.010482624 -0.1021032 0.88084757 18980221
-0.011724696 -0.1007243 0.87298733 26494148
-0.035997704 -0.1024979 0.86082047 20987968
-0.038946033 -0.10244933 0.8580423 20987968
-0.037342325 -0.10111731 0.85286355 20987968
-0.036981404 -0.10030813 0.84918964 18591567
-0.035403788 -0.098975614 0.84398615 18591567
-0.036896676 -0.098951057 0.84257948 18591567
0.0079292506 -0.11010871 0.94604629 29474205
0.005685553 -0.10925113 0.93992144 24810066
0.0035745949 -0.10948985 0.93926924 24810066
-0.012854502 -0.11414265 0.94785446 29150284
-0.019952193 -0.11347865 0.93849283 29150284
-0.016100556 -0.10478934 0.8993395 25911295
-0.014966905 -0.10371385 0.89505959 25911295
-0.01449053 -0.10290112 0.89149749 25911295
-0.013378873 -0.10182542 0.88719726 25911295
-0.013563633 -0.10127539 0.88434941 25911295
-0.008455351 -0.095341899 0.85974914 29992325
-0.0080628395 -0.094527848 0.85610837 29992325
-0.036507219 -0.10062372 0.86139387 20987968
-0.03736344 -0.10033613 0.85925025 20987968
-0.039084613 -0.099760763 0.8549546 20987968
-0.038722306 -0.098946139 0.85128528 18591567
-0.037144214 -0.097604588 0.84608752 18591567
-0.037412822 -0.097053044 0.84316045 18591567
0.0045107752 -0.10769437 0.94117421 24810066
0.0024020523 -0.10793499 0.94052297 24810066
0.0016491264 -0.10764728 0.93847793 24810066
-0.0092975348 -0.11077114 0.94419473 31741140
-0.021769211 -0.11221778 0.94045895 29150284
-0.02582857 -0.1132523 0.9419778 29150284
-0.018703029 -0.10318162 0.89926225 25911295
-0.017576113 -0.10209886 0.89498067 25911295
-0.019677758 -0.10233952 0.89433628 25911295
-0.017282695 -0.10072696 0.88857746 25911295
-0.014873624 -0.097187012 0.8734802 26494148
-0.011914626 -0.095308311 0.86691672 29992325
-0.0083422065 -0.09316431 0.85959524 29992325
-0.007952407 -0.092344739 0.85595495 29992325
-0.0063106269 -0.090994932 0.85082227 24421412
-0.035779238 -0.098219395 0.86046195 18591567
-0.037873745 -0.098460227 0.85982436 18591567
-0.041074097 -0.097856708 0.85413688 18591567
-0.038270935 -0.095975474 0.84742677 18591567
-0.037318468 -0.094889827 0.8429805 18591567
-0.036986575 -0.094069198 0.83928543 18591567
0.016099408 -0.10524285 0.9491114 29474205
0.011913404 -0.10628262 0.95050687 29474205
0.00068379939 -0.1077606 0.94793504 24810066
-5.7950616e-05 -0.10747126 0.94590157 31741140
-0.0021577328 -0.10771389 0.94525784 31741140
-0.0015499443 -0.10689238 0.94182605 31741140
-0.006348595 -0.10819918 0.94397897 31741140
-0.0070931166 -0.1079097 0.94194263 31741140
-0.023583934 -0.11096419 0.94242305 29150284
-0.028301716 -0.11227237 0.94465226 29150284
-0.026309475 -0.10426703 0.90781754 25911295
-0.033545494 -0.10664239 0.91301364 22153930
-0.02373518 -0.10070603 0.89288968 25911295
-0.018999919 -0.097457923 0.88133246 26494148
-0.016022697 -0.095566705 0.87479359 26494148
-0.013065428 -0.093675159 0.86823571 29992325
-0.010128453 -0.091783389 0.86165863 29992325
-0.010368809 -0.091225035 0.8587625 29992325
-0.035671324 -0.096074514 0.86028427 18591567
-0.039000705 -0.096851237 0.86115223 18591567
-0.042321399 -0.097628079 0.86202812 30251513
-0.039054558 -0.093524128 0.84508282 18591567
-0.036896303 -0.091896661 0.83910692 18591567
0.020601943 -0.10322162 0.95304567 29474205
0.017782167 -0.10373319 0.95305651 29474205
0.016348645 -0.10370962 0.95170587 29474205
0.014226064 -0.10395361 0.95103985 29474205
0.010045066 -0.10500078 0.95243567 29474205
-0.0059777647 -0.10780586 0.95201117 18462101
-0.0080655068 -0.10805044 0.95137769 18462101
-0.0094745308 -0.10802725 0.95005018 18462101
-0.0081869513 -0.10693236 0.9459278 31741140
-0.0069106966 -0.10583741 0.94179481 31741140
-0.041419104 -0.11503416 0.95596534 25652107
-0.020782247 -0.096122697 0.88337356 26494148
-0.015899822 -0.093413033 0.87463528 26494148
-0.037660807 -0.094170533 0.85946661 18591567
-0.042829365 -0.095759422 0.86260003 30251513
-0.044912785 -0.096004099 0.86197084 30251513
-0.044796154 -0.094611041 0.85541153 18591567
-0.040788785 -0.092165999 0.84718257 18591567
-0.037414938 -0.089989491 0.83969057 18591567
0.020153895 -0.10195773 0.95631629 29474205
0.01733543 -0.10247289 0.95632607 29474205
0.013831541 -0.1032577 0.9570232 29474205
0.0089138299 -0.10401922 0.95638829 29474205
0.0061186105 -0.10453477 0.95641977 29474205
0.0026432425 -0.1053201 0.95714408 29474205
-0.014642075 -0.10868613 0.95818394 18462101
-0.015363023 -0.10839341 0.95617193 18462101
-0.014065877 -0.10729145 0.95206279 18462101
-0.01009129 -0.1051103 0.94514531 31741140
-0.0081519932 -0.10373803 0.94030827 18462101
-0.091845065 -0.13044265 0.99473327 22802319
-0.076224074 -0.12283654 0.97213238 17037207
-0.020654187 -0.09398374 0.88321191 26494148
-0.016413063 -0.091526039 0.87521261 26494148
-0.046033517 -0.094408095 0.86329722 30251513
-0.047136739 -0.093547381 0.8582592 30251513
0.021829471 -0.10045337 0.96025163 29474205
0.021091923 -0.10015861 0.95822507 29474205
0.01688458 -0.10121989 0.95958775 29474205
0.0071233958 -0.10388576 0.96370858 29474205
-0.0026391894 -0.10542084 0.96250087 29474205
-0.017917022 -0.10686513 0.95609623 18462101
-0.015282676 -0.10521252 0.95058757 18462101
-0.013335869 -0.10383127 0.94576293 18462101
-0.015416786 -0.10407966 0.9451341 18462101
-0.041657761 -0.11184452 0.95903116 25652107
-0.087141559 -0.12833749 0.99741453 22802319
-0.091694236 -0.12967579 0.99978358 22802319
-0.091662034 -0.12911102 0.99715072 22802319
-0.078139454 -0.1188754 0.96061593 25069254
-0.07818909 -0.11830923 0.95790523 25069254
-0.029885232 -0.096492127 0.89687443 21570821
-0.02243416 -0.092657603 0.88525003 21570821
-0.016291827 -0.08936692 0.87505603 26494148
-0.044090196 -0.091452844 0.86084962 30251513
-0.049229622 -0.093064077 0.86399788 30251513
-0.043306306 -0.088356487 0.84693843 18591567
0.019942865 -0.09917853 0.96215934 29474205
0.0066652447 -0.10265816 0.96694893 29474205
-0.024419084 -0.10812032 0.96560627 29798126
-0.021763191 -0.10645718 0.96012419 18462101
-0.018453285 -0.10452026 0.95392758 18462101
-0.015163735 -0.102583 0.94771165 18462101
-0.015236095 -0.10201284 0.94498199 18462101
-0.019315973 -0.10308357 0.9464609 18462101
-0.038774371 -0.10930622 0.95873398 29798126
-0.047420129 -0.11229314 0.96522611 25652107
-0.087584391 -0.12670934 0.99791282 17620060
-0.09082666 -0.12750933 0.99884981 17620060
-0.090145707 -0.1266672 0.99549955 17620060
-0.084264785 -0.12363473 0.98640233 17037207
-0.079065412 -0.12087551 0.97799379 17037207
-0.079771936 -0.11944138 0.97067434 17037207
-0.081733927 -0.11969353 0.97015625 17037207
-0.079838783 -0.11830232 0.96528822 17037207
-0.082444564 -0.11882834 0.96549433 17037207
-0.029749393 -0.094377041 0.8967073 21570821
-0.024211794 -0.091338851 0.88728607 26494148
-0.018706501 -0.088300243 0.87783515 26494148
-0.047903836 -0.090379499 0.86230117 30251513
-0.043820813 -0.08646401 0.84751779 18591567
-0.026243672 -0.10691592 0.96753329 27141734
-0.024259791 -0.10551703 0.96275371 29798126
-0.022290871 -0.10411787 0.95796031 18462101
-0.018997326 -0.10216794 0.95175534 18462101
-0.017059997 -0.10076829 0.94693202 18462101
-0.020468399 -0.10157103 0.94770998 18462101
-0.088681906 -0.12535673 0.99912399 17620060
-0.089307681 -0.12506011 0.9972046 17620060
-0.083411902 -0.12143512 0.98547333 22802319
-0.086692497 -0.1199495 0.97573346 17037207
-0.08093825 -0.1168948 0.96652836 17037207
-0.051706091 -0.089317419 0.86375773 30251513
-0.046758682 -0.085676812 0.85113263 18591567
-0.020555004 -0.10440188 0.96989161 29798126
-0.023288801 -0.10493309 0.96997303 27141734
-0.026753709 -0.10458787 0.96537966 29798126
-0.026123151 -0.10373389 0.96198779 29798126
-0.02282615 -0.10177118 0.95579356 18462101
-0.021551147 -0.10063952 0.95167965 18462101
-0.024283782 -0.10117088 0.95176262 29150284
-0.087138787 -0.12232243 0.99484891 17620060
-0.0819107 -0.11895073 0.98383003 17037207
-0.083871335 -0.11863029 0.98065418 17037207
-0.082678348 -0.1157686 0.96849161 17037207
-0.0079068393 -0.10257145 0.98146898 27141734
-0.012734845 -0.10336193 0.98090333 27141734
-0.020355985 -0.10236641 0.96973962 29798126
-0.022414431 -0.10262249 0.96912748 29798126
-0.025144354 -0.10315744 0.96921057 27141734
-0.027230874 -0.1028331 0.96591681 29798126
-0.027941242 -0.10253135 0.9639197 29798126
-0.027986154 -0.10195071 0.96122187 29798126
-0.024702802 -0.099975042 0.95502228 29150284
-0.081753612 -0.11991302 0.99685949 17620060
-0.052363455 -0.084730849 0.86124831 30251513
-0.018067345 -0.10065351 0.97288436 29798126
-0.01948069 -0.10004665 0.96889931 29798126
-0.021541849 -0.10030445 0.96828395 29798126
-0.024947211 -0.10112374 0.96905512 27141734
-0.027672008 -0.10166243 0.96914095 27141734
-0.028378651 -0.10135901 0.9671486 29798126
-0.030426875 -0.1016171 0.96654552 29798126
-0.031804413 -0.1015944 0.96524769 29798126
-0.080309346 -0.11917854 1.0031228 17620060
-0.081543595 -0.11799099 0.99665338 17620060
-0.087505072 -0.11293223 0.96848363 17037207
-0.092721477 -0.11342985 0.96622151 26817813
-0.015060022 -0.10042059 0.9833346 27141734
-0.018545404 -0.098894961 0.97342247 27141734
-0.019997045 -0.097696587 0.96675235 29798126
-0.024078354 -0.098803855 0.96820933 27141734
-0.028148219 -0.099911325 0.96967703 27141734
-0.030195758 -0.10017119 0.96907347 29798126
-0.03224051 -0.10043109 0.96847242 29798126
-0.087886125 -0.11243389 0.97436804 17037207
-0.089835405 -0.11269542 0.97385699 17037207
-0.091782212 -0.11295703 0.97334832 17037207
-0.09436132 -0.11350175 0.97356945 26817813
-0.096934825 -0.11404656 0.97379571 26817813
-0.10266562 -0.11600747 0.97767514 26817813
-0.10900792 -0.11825202 0.98230416 26234960
-0.057261959 -0.082107812 0.86403412 30251513
-0.016221389 -0.0989554 0.98454863 27141734
-0.018964157 -0.099501111 0.98461324 27141734
-0.019702271 -0.097420864 0.97464615 27141734
-0.019802943 -0.095646396 0.96660358 29798126
-0.023211405 -0.096476652 0.96736592 29798126
-0.02862443 -0.098160177 0.97021312 27141734
-0.032010838 -0.098990746 0.97099596 29798126
-0.034720466 -0.099536978 0.97109181 19951728
-0.081801474 -0.11501128 0.99958235 17620060
-0.064768225 -0.10642823 0.97589439 32064805
-0.085746616 -0.11021897 0.97467202 17037207
-0.05957742 -0.081104845 0.86687177 30251513
-0.062239796 -0.081651889 0.86701268 30251513
-0.011883572 -0.096395388 0.98564786 27141734
-0.013948873 -0.09665864 0.98502511 27141734
-0.016696408 -0.097207882 0.9850834 27141734
-0.019438311 -0.097757272 0.98514718 27141734
-0.022194579 -0.097117417 0.97990292 27141734
-0.020857558 -0.095950268 0.97586864 27141734
-0.01893653 -0.093306422 0.96576685 29798126
-0.022346154 -0.094142057 0.9665249 29798126
-0.028429732 -0.096122764 0.97005731 27141734
-0.03181608 -0.096958853 0.97083718 29798126
-0.035194263 -0.097794987 0.97162515 19951728
-0.062615961 -0.10358617 0.97358185 32064805
-0.084244967 -0.1082835 0.97570223 31481952
-0.11997698 -0.11958607 0.99497634 29733137
-0.010981634 -0.094665132 0.98748344 27141734
-0.013047829 -0.094930217 0.98685902 27141734
-0.015797153 -0.095483057 0.9869135 27141734
-0.017856225 -0.095748298 0.98629576 27141734
-0.021278754 -0.0965892 0.98703831 27141734
-0.023329243 -0.096854553 0.98642892 27141734
-0.023497984 -0.092664219 0.96775478 29798126
-0.029576614 -0.094657831 0.97128481 29798126
-0.03429769 -0.096075647 0.97344917 29798126
-0.037002176 -0.096629277 0.97354573 19951728
-0.061120465 -0.10101762 0.97198075 32064805
-0.082741871 -0.1063445 0.97673649 31481952
-0.084058717 -0.10632281 0.97549564 31481952
-0.087968767 -0.10685658 0.97445637 31481952
-0.091830522 -0.10798938 0.97610778 31481952
-0.0086993426 -0.092355736 0.98797625 27141734
-0.011458054 -0.092912182 0.98801988 27141734
-0.013523862 -0.09317904 0.98739475 27141734
-0.015586719 -0.093445957 0.98677272 27141734
-0.018331096 -0.094002664 0.98682994 27141734
-0.021751866 -0.094849043 0.98757094 27141734
-0.024483368 -0.095405944 0.98764056 27141734
-0.025849089 -0.095383428 0.98635358 27141734
-0.02464883 -0.091190137 0.96898383 29798126
-0.028043851 -0.092037059 0.96974951 29798126
-0.035439461 -0.094623573 0.97467417 19951728
-0.040808782 -0.096340753 0.97754389 19951728
-0.082591519 -0.10377764 0.97385496 31481952
-0.0839127 -0.10375586 0.97261018 31481952
-0.085233524 -0.10373404 0.97136551 31481952
-0.089736998 -0.10516457 0.97372979 31481952
-0.098035887 -0.10833815 0.9804464 26817813
-0.10566947 -0.11122169 0.98646849 29733137
-0.1132742 -0.1141058 0.99251777 29733137
-0.11958872 -0.11640923 0.99713975 29733137
-0.0091770142 -0.090599038 0.98851389 27141734
-0.011246815 -0.090867758 0.98788434 27141734
-0.013313338 -0.091136396 0.98725742 27141734
-0.016062692 -0.091696702 0.98730797 27141734
-0.018122062 -0.091965444 0.98668796 27141734
-0.022907272 -0.093400441 0.98878115 27141734
-0.027000651 -0.093938589 0.98756558 27141734
-0.027686939 -0.093624465 0.98559803 27141734
-0.027023837 -0.092727177 0.9822616 27141734
-0.033874825 -0.092614301 0.97580665 29798126
-0.039251253 -0.094342284 0.97866338 19951728
-0.046609282 -0.096945912 0.9836145 19951728
-0.049287409 -0.097507313 0.98373193 19951728
-0.081127286 -0.1012214 0.97221762 31481952
-0.08828336 -0.1026173 0.97207719 31481952
-0.097215533 -0.10610323 0.97950608 26817813
-0.10611297 -0.10958985 0.98696798 26234960
-0.11308134 -0.11219998 0.99228626 29733137
-0.12128393 -0.11539517 0.99908251 29733137
-0.02884911 -0.091572098 0.98416001 27141734
-0.031637892 -0.090307765 0.97625452 29798126
-0.041056365 -0.093198478 0.98057455 19951728
-0.047740966 -0.095525049 0.98483127 19951728
-0.052410066 -0.096971177 0.98702949 19951728
-0.078977421 -0.098970115 0.97255164 31481952
-0.081748933 -0.097706132 0.96466261 31481952
-0.093227431 -0.10239043 0.97495824 21052701
-0.11162739 -0.10970207 0.99060625 29733137
-0.12171765 -0.11380003 0.99957067 29733137
-0.036130086 -0.090334423 0.9809137 19951728
-0.049537241 -0.094403379 0.98673838 19951728
-0.053536952 -0.095563211 0.98824352 19951728
-0.057524666 -0.096723147 0.98975939 19951728
-0.058857515 -0.096701227 0.98850387 22867052
-0.06158635 -0.088382915 0.95033616 32000072
-0.081575081 -0.09571404 0.96446162 31481952
-0.090512812 -0.099243827 0.97186095 31481952
-0.098783523 -0.10247816 0.97856992 21052701
-0.10828431 -0.106305 0.98675734 26234960
-0.050002024 -0.092694528 0.98726159 19951728
-0.053999484 -0.093861602 0.98876435 19951728
-0.056661531 -0.094434209 0.98889059 19951728
-0.058657527 -0.094709575 0.98832732 22867052
-0.051201105 -0.081577912 0.93870693 19304142
-0.053872034 -0.0821504 0.93882507 19304142
-0.070527136 -0.089273863 0.95474881 28567431
-0.090335682 -0.097270101 0.97165304 31481952
-0.097970843 -0.10022676 0.97763222 21052701
-0.10620725 -0.10348172 0.9843623 26817813
-0.050466508 -0.090985559 0.98778468 19951728
-0.05379951 -0.091860905 0.9885934 19951728
-0.055139303 -0.09183877 0.98733085 19951728
-0.053716764 -0.080079466 0.93865103 19304142
-0.083766282 -0.092917554 0.96693903 31481952
-0.091424242 -0.095892057 0.97288686 31481952
-0.097790748 -0.098267712 0.97741824 21052701
-0.10287537 -0.10004443 0.98052555 26817813
-0.048276231 -0.088072754 0.9855482 19951728
-0.050950691 -0.08865241 0.98565859 19951728
-0.050976083 -0.088028252 0.98300427 19951728
-0.049028993 -0.086500883 0.9782626 19951728
-0.049070209 -0.085876413 0.97559303 19951728
-0.057062224 -0.081690006 0.95096403 32000072
-0.045656338 -0.075639948 0.93540519 19304142
-0.060562342 -0.081320442 0.94635075 19304142
-0.086127445 -0.092127621 0.9696129 21635810
-0.091879904 -0.094216131 0.9733997 31481952
-0.09698154 -0.096003525 0.9764846 21052701
-0.04493776 -0.082027078 0.97125942 20534581
-0.044995815 -0.081398644 0.96857613 20534581
-0.04702352 -0.081678882 0.96797985 20534581
-0.056990907 -0.084338233 0.97041649 32647914
-0.057051912 -0.083709732 0.96773034 32647914
-0.056898803 -0.079633892 0.95078939 32000072
-0.046143129 -0.073850274 0.93595296 19304142
-0.088485524 -0.09134876 0.97228318 31481952
-0.092335522 -0.092540227 0.97391266 31481952
-0.096804053 -0.094035313 0.97627348 21052701
-0.10256203 -0.095509104 0.97741944 21052701
-0.040812343 -0.078151904 0.96693319 20534581
-0.040225759 -0.077214934 0.96354598 24033014
-0.059409916 -0.083525494 0.97304791 32647914
-0.062060833 -0.084112942 0.97317654 32647914
-0.065999687 -0.085310154 0.97471803 32647914
-0.085083619 -0.088466905 0.97118217 21635810
-0.090207994 -0.090275824 0.97423285 31481952
-0.09342213 -0.091169529 0.97514421 31481952
-0.096627876 -0.092063405 0.97606379 31481952
-0.099824503 -0.092957392 0.976991 21052701
-0.10050596 -0.092630617 0.97503573 21052701
-0.1031248 -0.092587449 0.97256798 21052701
-0.033672884 -0.076839969 0.975959 24033014
-0.038370311 -0.078349426 0.97809392 20534581
-0.042485282 -0.078281671 0.97421664 20534581
-0.039909214 -0.07641986 0.96877068 24033014
-0.061176598 -0.082417041 0.97497576 32647914
-0.084276527 -0.086162455 0.97026891 21635810
-0.091355577 -0.088267505 0.97278422 31481952
-0.098453894 -0.08973749 0.97265679 21052701
-0.10039376 -0.09002284 0.97214097 21052701
-0.028167412 -0.072312638 0.97033161 30445712
-0.03353864 -0.074139386 0.97313756 24033014
-0.038230658 -0.075658128 0.97527236 20534581
-0.03966485 -0.074996091 0.97129864 24033014
-0.037099004 -0.073123105 0.96584946 24033014
-0.060346216 -0.080081895 0.97410184 32647914
-0.093134746 -0.086564295 0.97205263 21635810
-0.095084682 -0.086851366 0.97152656 21635810
-0.098282754 -0.087756358 0.97244686 31481952
-0.10022375 -0.088043578 0.97192913 21052701
-0.10471858 -0.088927157 0.97162741 21052701
-0.023335323 -0.068062417 0.96539861 30445712
-0.030040517 -0.070520222 0.96956176 24033014
-0.03473857 -0.072047949 0.97168559 24033014
-0.036191106 -0.071382001 0.96769685 24033014
-0.059517905 -0.077739477 0.97323042 32647914
-0.088492587 -0.083040752 0.96951145 21635810
-0.091707826 -0.08395081 0.97041208 21635810
-0.0949146 -0.08486113 0.97132105 21635810
-0.098112807 -0.085771553 0.97223824 21635810
-0.10067841 -0.08637134 0.97244078 21052701
-0.10510525 -0.087903619 0.97482044 21052701
-0.10703419 -0.088192813 0.97431296 21052701
-0.026548162 -0.066878945 0.96599239 30445712
-0.033895835 -0.069663689 0.97085124 24033014
-0.035354912 -0.068993926 0.96685821 24033014
-0.087694809 -0.08072333 0.96859652 21635810
-0.090911493 -0.081638917 0.96949309 21635810
-0.093493447 -0.082242087 0.96967834 21635810
-0.1080448 -0.087491073 0.97822231 21052701
-0.023723587 -0.063529491 0.96311444 30445712
-0.031734213 -0.06664449 0.96864742 24033014
-0.035178289 -0.066912472 0.96671063 24033014
-0.053983226 -0.071148299 0.96730477 17684793
-0.060521454 -0.073638052 0.97160846 29215017
-0.071792379 -0.075725242 0.97014529 29215017
-0.0829622 -0.077814028 0.96877724 21635810
-0.089489982 -0.079005226 0.96785885 21635810
-0.090824172 -0.078983203 0.96660167 21635810
-0.022887781 -0.061108571 0.96229452 30445712
-0.037559196 -0.066744268 0.9719972 29862859
-0.03574042 -0.06448859 0.96456188 24033014
-0.051870331 -0.068140998 0.96504802 17684793
-0.057119727 -0.07001365 0.96794409 17684793
-0.089324489 -0.076993026 0.96766132 21635810
-0.091910392 -0.077603452 0.9678387 21635810
-0.023375586 -0.059315279 0.96284324 30445712
-0.038037837 -0.064983957 0.97253603 29862859
-0.039497152 -0.06430313 0.96854872 29862859
-0.052346423 -0.066389859 0.96558386 17684793
-0.054368392 -0.066684872 0.9649846 17684793
-0.060248286 -0.068886511 0.96858639 17684793
-0.063540205 -0.069817238 0.96940297 29215017
-0.067624748 -0.069749996 0.9655543 30963832
-0.082803041 -0.072455019 0.96300679 30963832
-0.022542492 -0.056883242 0.96202642 30445712
-0.039173722 -0.063542902 0.97376031 29862859
-0.041940287 -0.063497342 0.9711538 29862859
-0.050150663 -0.064022414 0.96602756 17684793
-0.052176729 -0.064319238 0.96542364 17684793
-0.051622286 -0.063337781 0.96203083 17684793
-0.049148321 -0.061397567 0.9565323 17684793
-0.05374749 -0.06297265 0.95872372 17684793
-0.064909503 -0.066420563 0.96256071 30963832
-0.0656427 -0.06607838 0.96056515 30963832
-0.020392463 -0.053801738 0.95984715 30445712
-0.044380203 -0.062702484 0.9737553 29862859
-0.045106381 -0.06235854 0.97176701 29862859
-0.049247563 -0.062290326 0.96786517 29862859
-0.051274553 -0.062588997 0.96725935 17684793
-0.051362678 -0.061923485 0.9645682 17684793
-0.048237592 -0.05965098 0.95838529 17684793
-0.06156303 -0.062751479 0.95886904 17684793
-0.06166999 -0.062085666 0.95616013 17684793
-0.080503121 -0.068083405 0.96319014 30963832
-0.024275735 -0.05294292 0.96111137 31805873
-0.044856936 -0.060949557 0.97429174 29862859
-0.04688786 -0.061249956 0.97368127 29862859
-0.049724743 -0.060535543 0.96840233 29862859
-0.051751107 -0.060835928 0.96779567 29862859
-0.051195696 -0.059843622 0.96441048 17684793
-0.058858484 -0.059383538 0.95588726 17684793
-0.060243174 -0.059360728 0.95458263 17684793
-0.075215295 -0.06412147 0.96001905 30963832
-0.07469593 -0.063128546 0.95659965 30963832
-0.030114785 -0.053069819 0.96443218 30445712
-0.050767168 -0.059778325 0.97231203 29862859
-0.050848722 -0.059105668 0.96963149 29862859
-0.053519055 -0.059733007 0.96971911 17684793
-0.031349242 -0.046336405 0.93723172 31546685
-0.075058013 -0.062063366 0.95983952 30963832
-0.019999608 -0.046731915 0.95675677 31805873
-0.049867034 -0.058051679 0.9741438 29862859
-0.051891059 -0.058355805 0.97353762 29862859
-0.051325306 -0.05735267 0.97016782 29862859
-0.051413864 -0.056676276 0.96748286 29862859
-0.074273735 -0.059674464 0.95895189 30963832
-0.019836411 -0.044589784 0.95663005 31805873
-0.050342754 -0.056302335 0.97467929 29862859
-0.052366272 -0.05660836 0.97407228 29862859
-0.050509945 -0.054942407 0.96932262 29862859
-0.025029615 -0.0444027 0.9592517 31805873
-0.050169617 -0.054222658 0.97452706 29862859
-0.052194178 -0.054530423 0.97391826 29862859
-0.050341725 -0.052855261 0.96916991 29862859
-0.024866745 -0.042264264 0.95912284 31805873
-0.043985397 -0.05052343 0.97355264 29862859
-0.050083205 -0.051451806 0.97169966 29862859
-0.050819919 -0.051096745 0.96970814 29862859
-0.024705186 -0.040122181 0.95899504 31805873
-0.04056178 -0.04675683 0.96998864 29862859
-0.047429994 -0.047333203 0.96611065 29862859
-0.083490819 -0.05811727 0.9749245 28696897
-0.091359541 -0.059366763 0.97269696 28696897
-0.030040815 -0.043778367 0.97571582 24097747
-0.030784145 -0.043419581 0.97371989 24097747
-0.028251812 -0.041381609 0.96833211 24097747
-0.027155593 -0.039319851 0.96159059 31805873
-0.028574988 -0.039296512 0.9602533 31805873
-0.049199358 -0.04623571 0.96802944 19433608
-0.039661542 -0.040500354 0.95498973 31805873
-0.027607888 -0.033419907 0.93913811 28373232
-0.083955437 -0.056408323 0.97544748 28696897
-0.089687616 -0.058740176 0.97911602 28696897
-0.091647148 -0.059054576 0.97856551 28696897
-0.0936037 -0.059369005 0.97801763 28696897
-0.02841489 -0.037154358 0.96012408 31805873
-0.030029312 -0.032597989 0.94177252 28373232
-0.083792374 -0.054361243 0.97526735 28696897
-0.090148643 -0.057044074 0.97963494 28696897
-0.092732623 -0.057698496 0.97978967 28696897
-0.093440339 -0.05733835 0.97782809 28696897
-0.097261041 -0.058669113 0.97940677 28696897
-0.025566027 -0.038906015 0.97676009 24097747
-0.029556453 -0.035687748 0.96135777 31805873
-0.054018751 -0.044742152 0.97323591 22931785
-0.050906956 -0.04234153 0.96711284 19433608
-0.036930069 -0.034165107 0.9492355 21700543
-0.034845471 -0.030696802 0.93826371 28373232
-0.036919251 -0.031012915 0.93760294 28373232
-0.084257349 -0.052650496 0.97579092 28696897
-0.091235876 -0.055688001 0.98085815 28696897
-0.095066234 -0.057026029 0.98242372 28696897
-0.030046999 -0.033883397 0.96191007 31805873
-0.031466082 -0.033860017 0.96057278 31805873
-0.057066604 -0.044353381 0.97652119 22931785
-0.053952545 -0.041939992 0.97040743 22931785
