# .PCD v0.7 - Point Cloud Data file format
VERSION 0.7
FIELDS x y z rgba
SIZE 4 4 4 4
TYPE F F F U
COUNT 1 1 1 1
WIDTH 73
HEIGHT 1
VIEWPOINT 0 0 0 1 0 0 0
POINTS 73
DATA ascii
-0.292853 -1.11016 0.030462001 16907741
-0.26533899 -1.16272 -0.058325201 29603671
-0.231031 -1.1418999 -0.058367301 19757529
-0.22401699 -1.14551 -0.055056401 23255706
-0.230077 -1.13878 -0.055158202 19757529
-0.23609599 -1.13928 -0.064814404 19757529
-0.27258301 -1.16211 -0.058353599 29603671
-0.27097601 -1.1630501 -0.055230901 29603671
-0.217005 -1.14912 -0.051681999 23255706
-0.21513399 -1.14641 -0.048391599 27271200
-0.225784 -1.15188 -0.064797498 23255706
-0.22415601 -1.15274 -0.061532799 23255706
-0.233409 -1.0417399 -0.18166099 21441355
-0.12136 -1.07585 -0.065521397 21506088
-0.14419299 -1.0716799 -0.088700302 30769633
-0.125652 -1.0824 -0.094231501 24421412
-0.118343 -1.0834301 -0.091266297 24421412
-0.241522 -1.02446 -0.132237 18591567
-0.23820201 -1.02569 -0.13254701 18591567
-0.238502 -1.02621 -0.13606 18591567
-0.227705 -1.02483 -0.137007 31870606
-0.22499999 -1.02709 -0.14435799 31870606
-0.231554 -1.15933 -0.085909396 33036312
-0.14459801 -1.07215 -0.092246898 30769633
-0.228762 -1.05235 -0.188583 21441355
-0.210536 -1.02722 -0.195173 19174420
-0.225326 -1.05102 -0.192424 21441355
-0.19721501 -1.02356 -0.22153801 25522641
-0.29244199 -1.1432101 -0.071460098 26105494
-0.125218 -1.07998 -0.097634301 24421412
-0.23444401 -1.15826 -0.085639402 33036312
-0.128519 -1.0807101 -0.090390898 24421412
-0.117888 -1.0776 -0.062305201 21506088
-0.234386 -1.04636 -0.18481 21441355
-0.191937 -1.03161 -0.225091 25522641
-0.199958 -1.01928 -0.221516 29020818
-0.15528101 -1.06689 -0.059131999 20923235
-0.20751099 -1.0325 -0.188262 19174420
-0.244921 -1.04133 -0.20093501 18008714
-0.24144299 -1.04503 -0.190918 18008714
-0.207458 -1.03098 -0.191834 19174420
-0.225189 -1.05151 -0.18900999 21441355
-0.23696101 -1.04107 -0.18474001 21441355
-0.187546 -1.02779 -0.225912 25522641
-0.118163 -1.07462 -0.076350898 18073447
-0.207213 -1.02845 -0.195483 19174420
-0.144474 -1.07068 -0.095700197 30769633
-0.27915299 -1.03143 -0.108227 20340382
-0.233383 -1.15371 -0.0822502 33036312
-0.19207799 -1.0311 -0.228606 25522641
-0.228275 -1.0508 -0.185295 21441355
-0.291978 -1.1405801 -0.068165898 26105494
-0.210867 -1.02773 -0.19862001 19174420
-0.315896 -1.04371 -0.082453802 16777216
-0.32233 -1.05309 -0.089821003 30704644
-0.325459 -1.05072 -0.089597702 30704644
-0.32278299 -1.0535001 -0.093769498 30704644
-0.325912 -1.05112 -0.093542203 30704644
-0.32480001 -1.00606 -0.124026 27789320
-0.315698 -1.0226001 -0.174444 27206467
-0.32276401 -1.01969 -0.17392901 27206467
-0.32731399 -1.01948 -0.177498 20275649
-0.33143699 -1.01889 -0.177284 20275649
-0.33217299 -1.02022 -0.173572 20275649
-0.32500699 -1.05032 -0.085653201 30704644
-0.324554 -1.04992 -0.081708699 16777216
-0.31273201 -1.02491 -0.174742 27206467
-0.32268199 -1.05304 -0.097755201 30704644
-0.28811899 -1.03259 -0.123199 31287753
-0.32698399 -1.0089999 -0.127766 27789320
-0.32687899 -1.0191 -0.173711 20275649
-0.319664 -1.04926 -0.086068802 30704644
-0.33807701 -1.02219 -0.17347001 20275649
