ply
format ascii 1.0
comment Created by CloudCompare v2.11.3 (Anoia)
comment Created 16/02/2026 11:05 PM
obj_info Generated by CloudCompare!
element vertex 1214
property float x
property float y
property float z
property uchar red
property uchar green
property uchar blue
end_header
-0.145503 -0.943626 0.291461 45 50 66 
-0.145106 -0.938973 0.291941 173 184 204 
-0.141306 -0.926095 0.292076 171 182 204 
-0.13791 -0.917894 0.29173 167 178 200 
0.125321 -1.08358 0.183062 27 32 39 
-0.135782 -0.913994 0.29134 177 189 211 
-0.134517 -0.909709 0.291385 177 189 213 
-0.133253 -0.905424 0.291429 176 188 210 
0.0594534 -1.44448 0.247012 0 0 0 
-0.13113 -0.901538 0.291039 179 191 213 
-0.129866 -0.897257 0.291083 180 190 215 
-0.126484 -0.889106 0.290737 180 191 213 
-0.12396 -0.880551 0.290827 175 185 208 
0.111895 -1.0531 0.270311 162 173 195 
-0.121846 -0.876696 0.290436 175 186 207 
-0.119734 -0.872849 0.290044 176 187 210 
-0.117624 -0.869009 0.289653 170 179 202 
0.0618242 -0.981874 0.276115 136 147 167 
-0.114668 -0.86561 0.288825 169 177 200 
0.261476 -1.09022 0.256065 0 0 0 
-0.114259 -0.860915 0.289306 169 177 200 
-0.113001 -0.856653 0.289351 171 178 202 
-0.111743 -0.852391 0.289395 126 147 168 
-0.108385 -0.844319 0.289048 165 176 200 
0.184653 -0.959067 0.262885 192 201 218 
-0.105444 -0.840974 0.28822 166 174 197 
-0.0880775 -1.47718 0.257099 150 147 140 
-0.10335 -0.837183 0.287828 171 179 204 
0.25427 -0.926467 0.250116 0 0 0 
0.140472 -1.19803 0.265062 0 0 0 
0.0402812 -0.896903 0.277069 187 195 218 
-0.099166 -0.829625 0.287044 169 180 204 
-0.0970778 -0.825858 0.286652 170 182 206 
-0.095828 -0.821622 0.286697 173 184 208 
-0.093743 -0.817866 0.286305 171 182 207 
-0.0891648 -0.805662 0.286001 163 170 198 
0.0737626 -1.25009 0.267556 148 151 151 
-0.0754883 -0.779171 0.283689 162 169 197 
0.0237819 -1.40126 0.254635 160 165 162 
-0.0742475 -0.774966 0.283733 154 159 188 
-0.0655915 -0.755562 0.282641 167 175 203 
0.00987153 -1.25816 0.272741 173 183 195 
-0.0643539 -0.751368 0.282685 172 185 212 
-0.0614866 -0.74827 0.281855 176 183 211 
-0.0602514 -0.744084 0.281898 178 185 213 
0.158543 -1.39971 0.242168 0 0 0 
-0.0573908 -0.741009 0.281068 186 193 221 
-0.053304 -0.733778 0.28028 164 169 190 
-0.0500344 -0.726007 0.27993 163 168 190 
0.147337 -0.907052 0.265108 150 153 172 
0.231694 -1.1382 0.256989 0 0 0 
0.122817 -1.11675 0.192995 32 36 47 
0.188239 -1.03417 0.263725 0 0 0 
0.0609336 -1.4298 0.24887 171 178 187 
0.108494 -0.934688 0.270552 173 179 201 
0.217085 -0.994844 0.260118 0 0 0 
0.209385 -1.13649 0.259608 0 0 0 
-0.00888881 -0.995599 0.282005 162 168 190 
0.105992 -1.05799 0.269121 141 155 178 
0.00787254 -1.26493 0.27267 170 182 196 
0.0743801 -1.21683 0.269668 138 138 130 
-0.153691 -1.24493 0.283768 140 139 135 
-0.07151 -1.15287 0.284243 168 177 186 
0.258335 -0.919098 0.249002 0 0 0 
0.161377 -1.21822 0.261273 0 0 0 
0.123771 -1.10699 0.232512 28 34 41 
-0.116231 -1.12128 0.284603 136 134 135 
0.043937 -1.24563 0.27097 154 163 170 
0.168611 -0.882471 0.261135 166 166 181 
0.138043 -0.962326 0.267943 169 180 199 
0.0737605 -1.16503 0.264668 48 52 61 
0.155293 -0.908177 0.264111 165 166 187 
-0.270166 -1.37642 0.280824 152 153 147 
-0.269324 -1.36363 0.28224 152 154 153 
-0.26806 -1.35935 0.282285 159 161 161 
-0.266795 -1.35506 0.28233 148 150 149 
-0.044403 -0.868622 0.284063 175 183 206 
-0.266508 -1.35078 0.282802 148 153 153 
-0.265242 -1.34649 0.282847 162 166 169 
-0.263977 -1.3422 0.282892 157 161 164 
-0.262711 -1.33791 0.282937 150 154 157 
-0.262123 -1.32929 0.283882 149 153 154 
0.0302448 -1.31143 0.267014 174 176 189 
-0.261224 -1.31631 0.285301 125 128 133 
-0.257716 -1.30774 0.284963 131 134 140 
0.298005 -1.01566 0.249752 0 0 0 
-0.253905 -1.29483 0.285098 161 165 176 
-0.253286 -1.2861 0.286045 167 173 185 
-0.252972 -1.28173 0.286518 172 178 192 
-0.251699 -1.27742 0.286563 173 179 193 
0.126068 -1.10779 0.234634 29 36 42 
-0.25042 -1.25983 0.288458 156 159 174 
-0.249141 -1.2555 0.288503 150 152 167 
-0.248815 -1.25109 0.288977 157 161 172 
-0.247206 -1.24232 0.289496 163 166 181 
-0.245926 -1.23798 0.289541 141 143 158 
0.209968 -1.25664 0.252899 0 0 0 
-0.244311 -1.2292 0.290061 147 148 166 
-0.241748 -1.22052 0.290152 141 147 163 
-0.240467 -1.21618 0.290197 165 169 185 
-0.239186 -1.21183 0.290243 158 159 177 
0.120587 -1.30903 0.259212 0 0 0 
-0.238845 -1.20737 0.290717 159 160 178 
-0.236623 -1.20315 0.290334 165 166 184 
-0.23406 -1.19447 0.290424 155 156 174 
0.140281 -1.22628 0.263055 0 0 0 
-0.232779 -1.19012 0.29047 152 153 171 
-0.228935 -1.1771 0.290606 138 146 161 
-0.228585 -1.1726 0.291081 157 156 172 
-0.227302 -1.16826 0.291126 148 151 168 
-0.226949 -1.16375 0.291601 143 146 161 
-0.225308 -1.15488 0.292121 155 158 173 
-0.222739 -1.14617 0.292213 141 149 161 
-0.220726 -1.13273 0.293208 117 118 123 
-0.2176 -1.12876 0.292395 87 88 83 
-0.213745 -1.1157 0.292531 120 121 122 
0.11883 -1.13285 0.262619 32 35 42 
-0.0116651 -1.15122 0.278807 119 125 138 
0.0339605 -1.12073 0.183441 35 38 45 
-0.0605376 -0.92927 0.287071 166 174 193 
0.034059 -1.11708 0.183907 29 32 39 
0.038653 -1.11476 0.182221 41 44 51 
0.106417 -1.07271 0.244278 32 36 47 
0.236443 -1.11894 0.257829 0 0 0 
0.0909568 -1.11303 0.159576 42 47 50 
0.0743371 -1.08987 0.170081 26 31 34 
0.080617 -1.08846 0.16753 33 38 42 
0.0833431 -1.08584 0.166702 41 46 50 
0.0807604 -1.08135 0.168459 49 54 58 
0.0790697 -1.07715 0.169786 33 38 42 
0.0722789 -1.06373 0.17463 52 59 64 
-0.156719 -0.939016 0.292242 44 52 62 
-0.062995 -1.19453 0.281796 157 160 172 
-0.155029 -0.929978 0.292764 158 169 191 
-0.152882 -0.926013 0.292378 161 172 194 
-0.151602 -0.921678 0.292424 159 170 192 
-0.14818 -0.913394 0.292083 169 180 200 
-0.145624 -0.904733 0.292173 182 195 214 
-0.144346 -0.900403 0.292219 179 192 209 
-0.138798 -0.888225 0.291491 182 193 213 
-0.134971 -0.875256 0.291627 172 183 203 
-0.130717 -0.867463 0.290853 182 193 212 
-0.128593 -0.863578 0.290466 170 181 201 
-0.125622 -0.860134 0.289647 173 184 203 
0.201121 -1.18545 0.258196 0 0 0 
-0.1252 -0.855392 0.290124 168 176 195 
-0.120542 -0.842918 0.289827 176 185 206 
-0.117159 -0.834767 0.289485 169 175 197 
0.185585 -1.31983 0.249982 0 0 0 
-0.109156 -0.824207 0.287457 179 186 209 
-0.107055 -0.820398 0.287069 169 174 199 
-0.102434 -0.808049 0.286771 172 176 203 
-0.0990791 -0.799993 0.286428 154 159 188 
-0.0969876 -0.796218 0.28604 164 169 198 
-0.0944699 -0.787687 0.286129 167 172 201 
0.115802 -1.12474 0.212693 25 32 35 
-0.0923831 -0.783927 0.285741 174 179 208 
-0.0902986 -0.780175 0.285352 178 185 213 
0.160746 -1.01754 0.26625 165 172 191 
-0.0882163 -0.77643 0.284964 171 176 205 
0.112761 -1.13061 0.216828 34 38 49 
-0.0848819 -0.768443 0.28462 160 165 194 
0.31393 -0.974066 0.241641 0 0 0 
-0.0836275 -0.764192 0.284664 168 175 203 
-0.0823731 -0.759942 0.284709 171 181 204 
-0.0811187 -0.755691 0.284753 172 177 206 
-0.0790455 -0.751977 0.284364 172 177 206 
0.0384197 -1.39467 0.254584 156 165 166 
-0.0720236 -0.741428 0.282764 170 175 204 
-0.0678995 -0.734076 0.281986 175 182 210 
0.00109763 -0.751308 0.275776 173 177 202 
-0.0617301 -0.723105 0.280818 165 172 191 
0.0908399 -0.91285 0.272216 173 185 205 
0.123196 -1.0965 0.175204 28 31 40 
0.0414949 -1.01258 0.277816 161 172 193 
0.0985713 -1.43293 0.24545 0 0 0 
0.0101905 -0.966161 0.281245 157 163 182 
0.140089 -0.851363 0.263795 182 191 212 
0.156552 -1.26841 0.257588 0 0 0 
0.227164 -1.22092 0.254798 0 0 0 
0.0137345 -0.750664 0.274379 168 176 196 
0.180546 -1.00282 0.264111 168 183 204 
0.019912 -1.287 0.269722 156 166 178 
0.00789209 -1.00258 0.280706 152 164 187 
0.122415 -1.17087 0.267536 142 143 138 
0.288816 -0.972795 0.246865 0 0 0 
-0.0829371 -0.794485 0.284823 169 178 203 
0.0863693 -1.31551 0.261991 151 161 171 
-0.170567 -1.34489 0.276758 149 149 150 
0.120183 -1.16029 0.267357 121 118 108 
-0.277429 -1.34182 0.284006 160 164 167 
-0.275533 -1.32877 0.28499 152 157 161 
-0.273938 -1.32005 0.285505 153 158 162 
0.087254 -1.22261 0.268266 135 135 128 
0.107789 -0.918562 0.269869 182 191 213 
-0.143567 -1.24619 0.283226 156 155 161 
-0.271371 -1.31135 0.285596 171 174 183 
0.0579202 -1.25109 0.269346 138 141 146 
-0.271054 -1.30697 0.286065 139 142 149 
-0.26977 -1.30261 0.286111 152 155 164 
-0.268485 -1.29826 0.286156 152 155 164 
-0.266878 -1.2895 0.286672 165 169 180 
-0.267514 -1.28503 0.287566 159 165 177 
0.101574 -1.2447 0.266188 118 131 134 
-0.264937 -1.2763 0.287657 166 174 186 
-0.262029 -1.26313 0.288219 165 171 185 
-0.261357 -1.25422 0.289159 153 156 172 
-0.259382 -1.2409 0.290146 154 157 172 
-0.258088 -1.23652 0.290192 160 166 182 
-0.257742 -1.23203 0.290663 150 154 170 
-0.257043 -1.22304 0.291604 149 155 170 
-0.254449 -1.21425 0.291696 173 179 194 
-0.253152 -1.20985 0.291742 154 160 176 
0.198283 -1.24325 0.254384 0 0 0 
0.210078 -1.19375 0.256805 0 0 0 
-0.251855 -1.20545 0.291788 154 157 174 
-0.249618 -1.20119 0.291409 153 156 173 
-0.248322 -1.1968 0.291455 144 147 164 
-0.247026 -1.19241 0.291501 151 152 170 
-0.244794 -1.18816 0.291122 147 148 166 
-0.0327424 -1.18108 0.280844 166 168 181 
-0.242204 -1.17938 0.291214 142 143 161 
-0.240181 -1.1659 0.292202 146 150 167 
-0.237217 -1.15254 0.292765 145 150 167 
-0.234621 -1.14374 0.292858 152 155 172 
0.185696 -1.29225 0.252602 0 0 0 
-0.234247 -1.13916 0.293329 158 161 177 
-0.23257 -1.13016 0.293847 146 149 165 
-0.229969 -1.12135 0.293939 152 158 172 
-0.22775 -1.11715 0.293559 145 149 159 
-0.22645 -1.11274 0.293606 130 135 140 
-0.224235 -1.10855 0.293226 112 114 113 
0.0705227 -1.33936 0.260042 115 125 135 
-0.173721 -1.23821 0.285114 152 153 158 
0.0287447 -1.12287 0.181644 47 52 58 
0.230745 -1.18486 0.257025 0 0 0 
0.145429 -1.05978 0.267512 160 172 188 
0.0885584 -1.11571 0.156721 38 42 45 
0.089539 -1.10908 0.157214 54 57 62 
0.0728643 -1.08936 0.167165 40 45 49 
0.0747147 -1.0864 0.166772 43 48 52 
0.0818779 -1.08533 0.163818 33 38 42 
0.0801783 -1.08114 0.165132 35 40 44 
0.0707135 -1.06682 0.171214 30 35 38 
0.176132 -1.34372 0.248257 0 0 0 
0.123401 -1.124 0.250917 31 38 41 
-0.209858 -1.31888 0.280786 158 158 166 
-0.169244 -0.938779 0.292884 51 61 71 
-0.167951 -0.934399 0.29293 170 181 203 
0.0624585 -1.20769 0.270887 152 152 144 
-0.165366 -0.925639 0.293021 161 172 194 
-0.162781 -0.916879 0.293113 159 170 192 
-0.161488 -0.912499 0.293159 172 183 204 
-9.3773e-05 -1.26042 0.27397 173 176 191 
-0.154595 -0.895771 0.292486 181 192 212 
-0.151156 -0.88743 0.29215 178 189 209 
-0.149009 -0.883469 0.291768 184 195 215 
-0.147721 -0.879104 0.291813 173 184 202 
-0.145145 -0.870375 0.291905 168 178 193 
-0.140864 -0.862498 0.29114 177 188 206 
-0.139578 -0.858141 0.291185 161 173 189 
0.253925 -1.08689 0.255805 0 0 0 
-0.0484307 -0.930388 0.285605 168 176 197 
-0.137443 -0.854217 0.290803 165 177 193 
0.14702 -1.22142 0.26313 0 0 0 
-0.136158 -0.849864 0.290848 162 175 192 
-0.134873 -0.845511 0.290894 139 162 178 
-0.130175 -0.832904 0.290602 166 177 199 
-0.215508 -1.28901 0.283026 164 164 176 
-0.127205 -0.829468 0.289791 162 170 193 
-0.125081 -0.825587 0.289407 171 179 201 
0.0987691 -1.20502 0.268265 128 123 117 
-0.122119 -0.822178 0.288596 179 189 211 
0.318782 -0.955896 0.239193 0 0 0 
-0.120841 -0.817847 0.288641 164 172 197 
-0.117886 -0.814461 0.287829 159 167 191 
-0.11661 -0.810138 0.287874 156 163 189 
-0.114059 -0.801492 0.287965 163 169 195 
-0.111949 -0.797656 0.287581 163 169 195 
-0.110674 -0.793337 0.287626 157 162 191 
-0.108568 -0.789513 0.287243 159 164 193 
-0.106463 -0.785697 0.286859 161 166 195 
-0.103919 -0.777074 0.286949 160 165 194 
-0.097626 -0.765692 0.285797 150 154 176 
-0.0934421 -0.758143 0.285029 171 178 206 
-0.0921753 -0.75385 0.285074 167 172 201 
-0.0909086 -0.749558 0.285119 165 170 199 
-0.0867382 -0.742054 0.28435 170 178 205 
-0.0825767 -0.734581 0.283581 167 174 202 
-0.0804995 -0.730856 0.283196 177 184 212 
0.155187 -1.38382 0.244565 0 0 0 
0.0582813 -1.01574 0.276239 147 159 182 
0.176339 -0.91764 0.261233 166 167 187 
0.0657556 -0.971808 0.275707 157 165 184 
0.122241 -1.11992 0.18933 26 32 41 
0.0842878 -0.925287 0.273626 167 175 198 
-0.181181 -1.34857 0.276766 151 155 158 
0.117441 -1.12514 0.194354 26 30 41 
0.284273 -1.00446 0.249451 0 0 0 
0.0195829 -0.740726 0.273118 161 168 186 
0.189206 -1.25311 0.255281 0 0 0 
0.107399 -1.06973 0.200939 42 44 57 
-0.284741 -1.31063 0.2866 171 175 181 
-0.284078 -1.30174 0.287532 144 148 151 
0.0625374 -1.35147 0.259019 176 185 193 
-0.283742 -1.29729 0.287999 151 154 159 
-0.281139 -1.28847 0.288091 151 156 162 
-0.279496 -1.27959 0.288604 156 162 174 
-0.279153 -1.27511 0.28907 164 172 183 
-0.276546 -1.26627 0.289163 165 171 185 
-0.275242 -1.26185 0.289209 167 173 187 
-0.274542 -1.25285 0.290143 166 174 186 
-0.273236 -1.24842 0.290189 144 150 162 
-0.0990386 -1.14658 0.285798 155 154 152 
-0.113212 -0.919252 0.28997 177 188 210 
-0.27193 -1.244 0.290235 153 157 169 
-0.272525 -1.23938 0.291123 155 159 171 
-0.269908 -1.23051 0.291216 163 167 179 
-0.269547 -1.22597 0.291683 145 152 162 
-0.266563 -1.21254 0.292244 157 161 173 
0.162564 -1.16875 0.263681 0 0 0 
-0.265252 -1.2081 0.29229 169 172 187 
-0.263942 -1.20366 0.292337 136 140 153 
-0.262631 -1.19922 0.292383 149 152 166 
0.224621 -1.12357 0.258528 0 0 0 
-0.259072 -1.19048 0.292055 145 147 162 
-0.256825 -1.18618 0.29168 141 144 159 
-0.253834 -1.17273 0.292241 151 153 168 
-0.253078 -1.16353 0.293176 142 144 159 
-0.249525 -1.15481 0.292848 143 146 161 
0.0854767 -1.15022 0.231535 40 44 55 
-0.247831 -1.14576 0.293362 150 162 176 
-0.246519 -1.14131 0.293409 146 153 169 
-0.245743 -1.13205 0.294345 158 161 178 
-0.244429 -1.1276 0.294392 150 152 170 
-0.203433 -1.2773 0.28388 162 162 173 
-0.243115 -1.12314 0.294439 142 143 161 
-0.241801 -1.11869 0.294485 159 160 178 
-0.239569 -1.11444 0.29411 150 151 169 
0.134125 -1.13762 0.266732 148 149 143 
-0.0165139 -0.810347 0.279668 170 175 198 
-0.238256 -1.10999 0.294156 147 148 166 
0.17491 -0.867601 0.260209 177 175 196 
-0.236943 -1.10554 0.294203 144 147 164 
0.165167 -1.28127 0.255851 0 0 0 
-0.23563 -1.1011 0.29425 145 146 164 
-0.232488 -1.09708 0.293452 138 141 158 
-0.0403233 -1.25159 0.277252 175 181 195 
0.0226101 -1.1248 0.180237 46 50 55 
0.119723 -1.31195 0.259182 0 0 0 
0.0798317 -1.11994 0.15636 48 52 55 
0.0852593 -1.11813 0.15428 46 48 53 
0.0880312 -1.11205 0.153924 53 58 62 
0.0731674 -1.08946 0.163396 34 39 43 
0.081367 -1.08157 0.160959 25 33 36 
0.263969 -1.03655 0.253375 0 0 0 
0.0796699 -1.07737 0.162263 52 62 62 
-0.181367 -0.943755 0.292537 32 39 42 
-0.182686 -0.938274 0.293854 40 49 60 
-0.181378 -0.933844 0.293901 172 187 210 
-0.179199 -0.929777 0.293523 162 173 195 
-0.177893 -0.925351 0.29357 155 166 188 
-0.176587 -0.920925 0.293616 160 171 193 
0.0916777 -1.14136 0.211786 37 39 51 
-0.174412 -0.916873 0.293239 163 174 196 
-0.171803 -0.908029 0.293331 166 177 197 
0.207756 -0.972457 0.260151 0 0 0 
-0.171363 -0.903223 0.293801 165 176 196 
-0.169193 -0.899186 0.293424 175 186 206 
0.0890126 -1.1619 0.256589 36 43 51 
-0.164417 -0.88632 0.293138 175 188 207 
-0.162254 -0.882306 0.292761 180 191 211 
-0.156633 -0.869894 0.292051 163 170 179 
-0.156188 -0.865068 0.292521 169 177 188 
-0.154033 -0.861081 0.292143 164 172 183 
-0.152732 -0.856674 0.292189 174 183 198 
-0.151432 -0.852267 0.292235 155 163 176 
-0.149281 -0.848295 0.291857 157 164 177 
-0.147981 -0.843892 0.291903 156 174 188 
-0.142391 -0.831583 0.291192 170 179 196 
-0.140249 -0.827641 0.290814 159 167 186 
-0.138109 -0.823707 0.290435 159 167 186 
-0.133837 -0.815861 0.289678 167 175 194 
0.232403 -1.16795 0.256412 0 0 0 
-0.130863 -0.812418 0.288874 156 163 184 
0.277324 -0.984498 0.249019 0 0 0 
-0.126155 -0.799781 0.288587 167 173 197 
-0.122741 -0.791531 0.288253 151 157 181 
-0.12062 -0.787658 0.287874 158 164 188 
-0.1185 -0.783792 0.287495 157 163 189 
-0.115098 -0.77558 0.287161 166 172 198 
-0.113813 -0.771227 0.287206 168 173 202 
-0.1062 -0.755379 0.286113 167 173 199 
-0.104919 -0.751037 0.286158 168 173 202 
-0.101535 -0.742886 0.285824 169 176 202 
-0.0981552 -0.734751 0.285489 175 182 210 
-0.0960581 -0.730961 0.285109 171 179 206 
-0.0939633 -0.727179 0.284729 178 185 213 
-0.0918705 -0.723405 0.284348 162 172 199 
0.123171 -1.11697 0.217105 30 34 43 
-0.136667 -0.884313 0.291104 168 179 199 
0.195883 -0.937112 0.260274 128 139 161 
0.296225 -1.00555 0.247127 0 0 0 
0.0327803 -1.3729 0.258187 168 168 176 
0.125085 -1.11079 0.206667 31 35 46 
0.101989 -1.14103 0.220764 31 35 44 
-0.1121 -0.82756 0.288277 182 187 211 
0.0626191 -1.42087 0.249531 166 174 181 
-0.108577 -1.4054 0.267022 122 124 111 
-0.100339 -0.804263 0.286383 167 179 204 
0.101702 -1.15142 0.240526 32 36 47 
0.122216 -1.12365 0.25521 31 34 39 
-0.29015 -1.26958 0.289588 168 174 188 
-0.289791 -1.26504 0.290051 168 174 186 
-0.287154 -1.25611 0.290145 165 173 185 
-0.286425 -1.24699 0.291072 162 168 180 
-0.287008 -1.24234 0.291952 133 139 151 
-0.28456 -1.22408 0.293391 139 143 155 
-0.284181 -1.21948 0.293855 142 146 158 
-0.281526 -1.21048 0.293949 133 141 150 
-0.14146 -1.24233 0.282803 146 144 150 
-0.277929 -1.20161 0.293626 144 148 158 
0.181134 -1.08785 0.264504 0 0 0 
-0.273011 -1.18827 0.29335 137 140 149 
0.174576 -1.32176 0.25078 0 0 0 
-0.271686 -1.18378 0.293397 143 146 157 
-0.269036 -1.1748 0.293491 151 153 165 
-0.267711 -1.17031 0.293538 155 158 169 
-0.265597 -1.15651 0.294514 145 149 160 
-0.26334 -1.15218 0.294143 148 152 164 
-0.25976 -1.14336 0.29382 159 161 174 
-0.25896 -1.13402 0.294749 137 140 155 
-0.259481 -1.12914 0.295632 155 158 173 
-0.259075 -1.12445 0.296097 139 142 157 
-0.2559 -1.12033 0.295308 147 150 165 
-0.250996 -1.10703 0.295032 152 155 172 
0.0235656 -0.752883 0.273776 175 182 202 
-0.247424 -1.09825 0.294708 149 152 169 
-0.243352 -1.09441 0.2935 148 152 168 
-0.239287 -1.09059 0.292292 138 142 159 
0.021041 -1.33396 0.264523 164 166 178 
0.100871 -1.03755 0.27195 148 160 185 
0.0164573 -1.12676 0.178792 25 30 34 
0.0913772 -1.40211 0.249235 0 0 0 
0.081953 -1.12056 0.151824 51 56 60 
0.0855861 -1.1182 0.1506 69 77 82 
0.0856714 -1.11128 0.151505 71 76 79 
0.223649 -1.16229 0.257375 0 0 0 
-0.010429 -0.74813 0.27712 167 171 198 
0.0839801 -1.10373 0.153247 69 77 80 
0.0822495 -1.09964 0.154538 62 67 71 
-0.108308 -0.759203 0.286492 152 157 186 
0.0339935 -1.1949 0.274212 167 179 188 
0.0725824 -1.08925 0.160053 37 42 46 
0.07088 -1.08506 0.161345 31 36 40 
0.0816722 -1.08168 0.157221 20 27 30 
-0.193988 -0.943728 0.292997 41 47 47 
-0.195299 -0.938212 0.294303 72 82 90 
-0.190016 -0.920311 0.29449 154 166 188 
-0.187825 -0.916206 0.294117 153 165 187 
0.162668 -1.37301 0.244954 0 0 0 
0.0666697 -1.43812 0.24729 0 0 0 
-0.187375 -0.911361 0.294584 149 161 183 
-0.185186 -0.907263 0.294211 146 159 178 
-0.183866 -0.902792 0.294257 160 171 192 
-0.182547 -0.898321 0.294304 164 175 195 
-0.182092 -0.89346 0.294771 161 172 190 
-0.172052 -0.872716 0.293325 162 174 188 
-0.168563 -0.864212 0.292998 152 156 157 
-0.165471 -0.850417 0.293558 169 176 182 
-0.161137 -0.842366 0.29281 150 155 162 
-0.158972 -0.838352 0.292436 153 162 174 
-0.156811 -0.834346 0.292062 151 157 169 
-0.14903 -0.817939 0.290986 160 166 185 
-0.144729 -0.810003 0.290238 164 170 192 
0.14067 -1.03305 0.268146 150 161 179 
-0.142582 -0.806046 0.289863 167 173 197 
0.0730971 -1.31454 0.263142 147 159 175 
0.0556682 -1.1994 0.272543 143 143 136 
0.0141957 -1.23052 0.275146 173 180 190 
-0.141277 -0.801624 0.289909 165 171 195 
-0.139972 -0.797202 0.289956 167 173 197 
-0.137362 -0.788358 0.290048 164 172 195 
-0.134386 -0.784912 0.289252 160 166 190 
-0.132249 -0.780989 0.288878 154 160 184 
-0.130114 -0.777074 0.288503 165 171 197 
-0.127513 -0.768261 0.288595 157 164 190 
-0.125383 -0.764361 0.28822 158 165 191 
-0.124084 -0.759958 0.288266 172 179 205 
-0.119832 -0.752189 0.287515 163 170 196 
-0.116413 -0.743925 0.287186 162 171 196 
-0.114294 -0.740063 0.286811 157 167 192 
-0.112177 -0.736209 0.286435 160 170 195 
-0.110884 -0.731825 0.286481 168 176 203 
-0.10877 -0.727982 0.286105 167 177 204 
0.145608 -0.827167 0.261139 172 175 192 
-0.106659 -0.724147 0.285729 173 183 210 
-0.105367 -0.719771 0.285775 167 177 204 
0.116188 -1.27511 0.261791 0 0 0 
0.189427 -1.38327 0.239944 0 0 0 
-0.0207246 -1.17214 0.280106 157 163 179 
-0.0693005 -0.897567 0.286874 168 178 191 
-0.0683625 -0.865274 0.286625 118 128 153 
-0.0566448 -0.819521 0.283351 190 196 220 
0.237271 -0.861252 0.249706 0 0 0 
-0.14103 -1.43584 0.265901 150 147 140 
0.11226 -1.00544 0.271205 164 178 204 
-0.0404053 -0.732546 0.279346 162 166 188 
0.0934821 -1.28176 0.264072 158 171 180 
0.303959 -0.992012 0.244684 0 0 0 
0.0798478 -1.00578 0.274009 148 164 187 
0.252456 -0.955612 0.252022 0 0 0 
0.213171 -1.17692 0.25825 0 0 0 
-0.148646 -1.34163 0.275554 147 147 143 
0.284792 -0.934625 0.24493 0 0 0 
0.198755 -1.35514 0.245546 0 0 0 
0.127008 -1.12864 0.265655 76 80 74 
-0.0315781 -0.786809 0.281186 151 155 182 
-0.0562788 -0.79571 0.282037 168 174 196 
0.0092755 -1.21893 0.27598 157 161 168 
-0.261017 -1.24976 0.28963 150 153 168 
-0.303428 -1.26839 0.290378 161 169 182 
0.323057 -0.958979 0.238568 0 0 0 
0.147137 -1.27606 0.258847 0 0 0 
-0.302096 -1.26388 0.290425 161 170 182 
-0.301722 -1.25929 0.290885 158 166 177 
0.105686 -0.88533 0.26891 176 187 209 
-0.301345 -1.25469 0.291345 153 161 172 
-0.301539 -1.24538 0.292679 156 166 178 
-0.300768 -1.23613 0.2936 141 149 160 
0.0935047 -1.2849 0.263463 157 167 177 
-0.299428 -1.23159 0.293647 147 155 166 
-0.299038 -1.22694 0.294108 149 157 168 
-0.297697 -1.2224 0.294155 156 165 174 
-0.291389 -1.20435 0.293932 155 164 173 
-0.284691 -1.18165 0.29417 157 162 168 
0.0493148 -1.28993 0.267282 170 176 190 
-0.282947 -1.17242 0.294678 149 154 157 
-0.274902 -1.14516 0.294963 138 145 155 
-0.273561 -1.14061 0.295011 143 149 161 
-0.271805 -1.13134 0.29552 139 144 156 
-0.270463 -1.1268 0.295568 143 149 162 
-0.268702 -1.11751 0.296077 147 153 165 
-0.266016 -1.1084 0.296172 140 148 160 
-0.263753 -1.10406 0.295805 127 136 150 
-0.285091 -1.18633 0.293709 152 157 162 
-0.261493 -1.09972 0.295439 131 138 154 
-0.259235 -1.09539 0.295072 133 136 152 
0.192167 -1.38839 0.239944 0 0 0 
-0.256064 -1.09129 0.294291 132 139 155 
0.0653534 -1.28504 0.26607 159 163 175 
0.126624 -1.10799 0.237813 29 33 42 
-0.258986 -1.31204 0.284918 124 128 131 
0.0131203 -1.12579 0.176513 43 46 53 
-0.122176 -0.91044 0.290547 186 193 219 
0.0589817 -1.36996 0.257697 132 147 152 
0.125012 -1.38426 0.24814 0 0 0 
0.0722881 -1.12459 0.151807 39 44 48 
0.0795399 -1.12327 0.148937 44 49 52 
0.0832202 -1.11744 0.148174 97 106 101 
0.0842044 -1.11079 0.148655 77 85 88 
0.0936448 -1.107 0.169831 52 55 60 
0.0728879 -1.08935 0.156295 43 51 53 
0.0775453 -1.08021 0.155567 21 29 31 
0.021396 -1.15931 0.27569 125 130 143 
0.244283 -1.13086 0.256154 0 0 0 
-0.205744 -0.934065 0.294288 139 157 181 
-0.206162 -0.928839 0.295167 136 156 180 
-0.204827 -0.924314 0.295214 155 175 202 
-0.202156 -0.915265 0.295309 138 156 178 
-0.200821 -0.91074 0.295356 144 159 182 
-0.198616 -0.90659 0.294988 151 166 189 
-0.197282 -0.902069 0.295035 145 158 179 
-0.195948 -0.897548 0.295082 146 159 178 
-0.194614 -0.893027 0.29513 149 160 180 
-0.193279 -0.888507 0.295177 147 159 179 
0.0210942 -0.783586 0.274647 172 180 203 
-0.18536 -0.871636 0.294117 152 160 179 
-0.18231 -0.867943 0.293332 141 154 164 
-0.180981 -0.863441 0.293379 137 142 151 
-0.179653 -0.85894 0.293426 128 130 140 
0.181429 -1.34661 0.247148 0 0 0 
-0.178706 -0.84909 0.294353 125 129 115 
-0.17823 -0.844153 0.294817 126 130 131 
-0.17301 -0.836431 0.293662 143 147 165 
-0.170831 -0.832368 0.293292 124 127 144 
-0.167327 -0.823818 0.29297 150 155 176 
-0.160813 -0.811708 0.291861 170 176 200 
-0.157324 -0.803208 0.291538 159 165 187 
-0.15516 -0.799198 0.291168 162 170 194 
0.112701 -1.42088 0.245461 0 0 0 
-0.15384 -0.794723 0.291214 165 173 196 
-0.152519 -0.790248 0.291261 173 181 204 
-0.151199 -0.785773 0.291308 172 180 203 
-0.146885 -0.777799 0.290568 161 169 192 
0.153714 -1.34557 0.250227 0 0 0 
-0.144731 -0.773823 0.290197 149 160 182 
-0.14258 -0.769855 0.289827 173 181 204 
-0.140431 -0.765894 0.289456 155 164 187 
-0.0672917 -0.948866 0.287325 180 188 211 
-0.138632 -0.756475 0.289967 166 174 195 
-0.129236 -0.741247 0.288066 175 184 210 
-0.127101 -0.737332 0.287695 164 174 199 
-0.123659 -0.728992 0.28737 157 168 190 
-0.121529 -0.725096 0.286999 155 165 190 
0.0868529 -1.1435 0.217488 30 36 45 
0.262911 -1.05146 0.254067 0 0 0 
-0.0496795 -1.38994 0.263167 157 157 155 
-0.219468 -1.30573 0.282411 168 171 180 
0.0633774 -1.34218 0.260244 181 188 196 
-0.241092 -1.35968 0.27975 164 162 167 
0.108017 -1.13564 0.18345 44 47 56 
-0.282441 -1.29288 0.288045 153 158 164 
0.169165 -1.36234 0.245941 0 0 0 
0.256765 -0.883407 0.247074 0 0 0 
0.20778 -1.30558 0.249988 0 0 0 
0.267779 -1.00093 0.251981 0 0 0 
-0.0793571 -0.892634 0.28768 166 174 195 
-0.0023129 -0.781986 0.277236 177 185 208 
0.123287 -1.1068 0.218741 28 32 41 
0.0650208 -1.44692 0.246626 0 0 0 
0.088726 -1.20351 -0.082277 40 55 29 
0.0886134 -1.20039 -0.0820939 81 81 65 
0.046844 -1.10792 -0.0710427 59 60 62 
-0.0538757 -0.777655 0.283544 173 180 208 
0.0506023 -1.10217 -0.0712835 66 69 70 
-0.204891 -0.993448 -0.028156 65 65 65 
0.139389 -1.02485 -0.0801065 37 60 40 
0.116987 -0.860056 0.26712 156 157 174 
-0.0796223 -0.786562 0.284475 173 180 208 
0.132081 -1.01468 -0.0784952 76 91 89 
0.0599433 -0.878484 0.274101 175 187 202 
0.222022 -1.07905 0.259823 0 0 0 
-0.271217 -1.23495 0.29117 151 157 169 
0.0659968 -1.31719 0.263327 176 186 196 
0.125034 -1.05487 0.269694 156 169 188 
-0.0831684 -0.928078 0.28881 175 183 206 
-0.202063 -1.34801 0.27755 165 162 172 
0.10328 -1.16714 -0.215722 125 126 86 
0.207707 -1.13899 0.260204 0 0 0 
0.304199 -1.00733 0.247223 0 0 0 
-0.204457 -1.35612 0.277465 163 160 167 
0.124889 -1.10732 0.200381 32 36 47 
-0.172873 -1.28419 0.282444 160 161 167 
-0.230388 -0.802351 0.296052 149 155 177 
0.106714 -1.02554 0.00965983 136 150 150 
-0.158646 -0.807687 0.291491 167 173 197 
0.0509688 -1.0988 -0.0744954 63 65 64 
0.0525886 -0.852741 0.273777 166 168 191 
-0.122621 -0.957741 0.288688 36 43 52 
-0.204713 -0.9935 -0.0326391 50 50 50 
0.101225 -1.07082 0.225506 35 39 48 
0.0852531 -1.09363 0.171941 27 31 40 
0.15401 -1.06072 -0.0871442 43 69 60 
0.0526575 -1.31626 0.264177 169 173 183 
0.259471 -1.09484 -0.10392 66 87 79 
0.133946 -0.847168 0.264034 175 187 208 
0.16114 -1.2981 0.255056 0 0 0 
0.277293 -0.935871 0.246403 0 0 0 
0.120818 -1.09216 0.233127 31 35 44 
0.0678967 -1.12888 -0.270409 47 71 49 
0.192359 -1.05622 0.263644 0 0 0 
0.328741 -1.07766 -0.144471 43 75 49 
0.178526 -1.09669 0.264411 0 0 0 
0.153667 -1.11402 0.266258 147 159 168 
-0.00458036 -1.22162 -0.290925 115 115 67 
-0.211078 -1.33952 0.278353 163 160 169 
0.0980999 -1.04457 -0.154188 104 111 95 
0.226994 -1.2039 0.255525 0 0 0 
0.179256 -1.37301 0.243042 0 0 0 
0.0438692 -1.21452 0.272802 156 166 175 
0.284954 -1.00042 -0.115246 52 73 58 
0.100927 -1.10741 -0.307565 39 69 21 
0.20701 -1.30819 0.249961 0 0 0 
0.123762 -1.11378 0.220821 33 37 46 
0.122346 -1.40928 0.244863 0 0 0 
0.00257261 -1.35974 0.262893 159 163 174 
0.194861 -1.08685 0.262714 0 0 0 
0.0548328 -1.2303 0.271199 153 158 161 
0.129917 -1.23917 -0.209953 159 151 94 
0.143803 -1.14167 -0.318919 54 78 41 
0.0494667 -1.10177 -0.0777735 58 66 59 
0.0769826 -0.965381 0.274697 166 174 195 
-0.204533 -0.993554 -0.0371145 37 42 38 
-0.270938 -1.08419 0.11325 57 88 86 
0.266129 -1.09515 -0.107385 47 68 61 
0.136486 -1.02027 -0.0856252 44 60 58 
0.0518316 -1.11445 0.107335 46 51 57 
-0.0857504 -1.2495 0.280321 173 173 185 
-0.0600689 -1.31936 0.272372 151 151 160 
0.242266 -1.08786 0.257279 0 0 0 
0.044121 -1.29365 -0.181897 185 169 93 
0.212677 -1.12534 0.259724 0 0 0 
0.114676 -1.13838 0.260474 31 34 40 
-0.0342058 -1.15748 0.281354 157 159 172 
0.128844 -1.10537 0.261786 36 41 47 
0.15496 -1.1277 0.266272 0 0 0 
0.00866871 -0.761242 0.275178 176 186 206 
0.0964402 -1.34644 0.256821 0 0 0 
0.196083 -1.34979 0.245548 0 0 0 
0.0618009 -1.05272 0.103687 141 148 164 
0.0919176 -1.20082 -0.0917726 133 131 92 
-0.0314672 -1.2118 0.279185 165 168 177 
-0.0907313 -0.957002 0.288056 152 163 181 
-0.34738 -1.06885 0.297763 161 163 178 
0.0451274 -1.10384 -0.080626 48 58 50 
-0.0890866 -1.22554 0.281553 155 155 165 
-0.207029 -0.819459 0.294799 137 139 164 
0.0479542 -1.10127 -0.0808766 76 86 78 
0.144208 -1.07264 -0.0923745 55 60 56 
0.14597 -1.07017 -0.0924875 72 75 68 
0.149487 -1.06525 -0.0927135 65 88 80 
0.150324 -1.06242 -0.0926839 45 82 65 
0.154747 -1.05793 -0.0930533 39 68 53 
0.112839 -1.42361 0.244833 0 0 0 
0.13701 -1.00246 0.268633 154 162 180 
-0.14904 -0.781782 0.290938 161 169 192 
0.134957 -1.15894 -0.327533 153 146 86 
-0.250688 -1.1583 -0.0480342 48 64 38 
0.0877305 -1.20606 -0.0945316 56 63 31 
0.0885883 -1.20315 -0.0945012 67 72 40 
0.236485 -1.12197 0.257159 0 0 0 
0.193381 -1.25668 0.254878 0 0 0 
-0.0345182 -1.32786 0.269414 186 190 202 
0.0938598 -0.993029 0.272341 148 160 186 
-0.0963142 -1.25985 0.279748 173 170 183 
0.143697 -1.07246 -0.0952919 44 50 48 
0.189292 -1.08458 0.263363 0 0 0 
-0.166472 -1.39943 0.27098 152 151 150 
0.114115 -1.13818 0.257268 35 40 44 
0.23516 -1.01801 0.257153 0 0 0 
0.281781 -1.00389 -0.109952 41 77 64 
-0.0149301 -1.22433 -0.263583 182 167 86 
0.0743686 -0.849212 0.271444 174 180 194 
0.119625 -1.04352 -0.143109 112 115 89 
0.155283 -0.923316 0.265083 183 184 206 
-0.189908 -1.40778 0.272052 158 156 160 
0.184283 -1.33059 0.248592 0 0 0 
0.00502644 -0.859614 0.279391 166 172 196 
0.254665 -1.04428 -0.167104 71 90 64 
0.0742582 -1.27309 0.266609 152 155 162 
0.0688226 -1.14486 0.175586 32 35 42 
0.0785915 -1.17578 0.0536258 161 169 189 
0.0468003 -1.20459 0.272906 137 137 129 
0.17512 -1.39655 0.24088 0 0 0 
0.0521957 -1.27371 0.268557 168 176 189 
0.052725 -1.43627 0.249104 155 156 148 
0.0383087 -1.10516 -0.0865024 47 61 43 
0.221058 -1.24477 0.253894 0 0 0 
0.0803745 -1.07406 0.144432 69 78 84 
0.0411463 -1.10255 -0.0867371 47 56 39 
0.144027 -1.06943 -0.0981795 40 45 38 
0.144867 -1.06659 -0.0981497 44 84 61 
0.146628 -1.06412 -0.0982549 47 87 66 
0.154568 -1.05475 -0.0988118 36 67 49 
0.104758 -1.13803 0.18117 44 47 56 
-0.00643605 -1.19232 -0.279149 55 77 39 
0.0973252 -1.19281 -0.213089 165 161 90 
0.182858 -1.1446 -0.0135404 71 91 94 
-0.115067 -0.889658 0.290329 168 175 201 
0.0438133 -1.10693 -0.0772568 55 65 57 
0.240966 -1.03398 0.256582 0 0 0 
0.049047 -1.35108 0.259918 168 171 180 
0.0237471 -1.39814 0.255213 158 162 163 
0.114458 -1.12423 0.199474 31 35 46 
-0.12336 -1.24869 0.281907 157 157 165 
0.126727 -1.35608 0.252658 0 0 0 
-0.0933168 -1.29478 0.27693 168 170 182 
0.150597 -1.00908 0.266716 160 169 184 
0.1399 -1.07098 -0.100734 41 46 39 
0.155811 -1.05215 -0.101807 44 72 52 
0.142691 -1.02333 -0.0927544 44 63 57 
0.109223 -1.1504 0.261461 25 30 36 
-0.130668 -1.18603 0.286169 122 121 117 
-0.0704988 -0.901627 0.286832 162 171 188 
0.0803665 -1.28025 0.265205 128 135 143 
0.0534159 -0.981959 0.276608 144 155 175 
0.282828 -1.00763 -0.115321 51 82 66 
0.284633 -0.994497 -0.114929 38 41 30 
0.0331692 -1.00908 0.278778 158 170 194 
0.0671649 -1.0999 -0.219408 58 51 23 
-0.247873 -1.31698 0.284102 119 120 123 
0.0906726 -1.09144 -0.280626 157 152 102 
0.126116 -1.09751 0.257694 36 41 48 
0.11643 -0.84336 0.266338 167 172 192 
0.159745 -0.929746 0.265018 150 153 172 
0.193893 -0.850707 0.256039 178 179 199 
0.0479973 -1.10614 0.113279 42 52 55 
-0.0225619 -1.21335 0.278263 171 173 186 
0.121197 -1.34731 0.254621 0 0 0 
0.100212 -1.0149 0.27257 148 160 186 
0.116101 -1.03766 -0.301913 40 69 40 
0.00303219 -0.799425 0.276501 164 172 191 
0.0833463 -1.20804 -0.103251 96 105 58 
-0.0855465 -1.21026 0.282195 155 155 165 
0.0860455 -1.2024 -0.103315 84 80 43 
-0.00814258 -1.2594 0.274643 182 188 204 
-0.222452 -1.32245 0.281358 139 139 150 
0.208213 -0.941208 0.258997 0 0 0 
0.236345 -1.15459 0.256552 0 0 0 
-0.140827 -1.07947 -0.0707408 64 74 72 
0.218875 -0.876487 0.254397 0 0 0 
0.0418993 -1.10274 -0.0935266 43 65 30 
0.140231 -1.06794 -0.103633 52 85 68 
0.141998 -1.06546 -0.10373 60 97 79 
0.144604 -1.06014 -0.103798 49 88 67 
-0.0115208 -0.921536 0.282194 167 176 192 
0.16187 -1.29244 0.255734 0 0 0 
0.100326 -0.996074 0.272028 132 144 170 
0.285396 -1.00083 -0.117836 48 62 47 
0.131966 -1.17807 -0.319477 61 77 25 
0.153471 -1.05116 -0.104443 39 76 53 
-0.261826 -1.32498 0.284355 142 146 147 
-0.199275 -1.06201 0.198205 49 58 63 
-0.0996305 -1.42987 0.262672 144 143 138 
-0.348078 -1.15113 0.29829 153 156 173 
0.115663 -1.1489 0.265088 32 35 40 
0.0139025 -1.32032 0.267226 164 164 179 
0.118065 -1.13583 0.241239 29 33 42 
0.131413 -1.14681 0.266636 151 152 146 
0.0777331 -1.15944 0.0792493 57 65 67 
0.162271 -1.06678 0.266556 169 180 200 
0.107373 -1.15202 -0.288805 63 97 64 
-0.225797 -1.17508 -0.0692771 74 90 64 
0.144485 -1.11888 -0.317036 40 68 28 
0.0818417 -1.20766 -0.106117 75 87 55 
0.0863826 -1.1993 -0.106269 89 85 49 
-0.167614 -1.4033 0.270939 151 150 148 
-0.0839451 -1.12653 -0.0834404 54 72 53 
0.188043 -1.212 0.258195 0 0 0 
0.229213 -1.20449 0.256932 0 0 0 
0.155212 -0.826117 0.259889 178 181 200 
-0.0485226 -0.746826 0.280938 178 185 213 
0.0743507 -1.05394 0.0991812 167 173 202 
0.140562 -1.0649 -0.106532 62 91 73 
0.102776 -1.08309 -0.290995 160 152 93 
0.142329 -1.06243 -0.106626 53 87 67 
0.0918837 -1.01495 0.27343 152 164 190 
0.181949 -1.3113 0.251134 0 0 0 
0.118928 -1.31785 0.258524 0 0 0 
-0.0243482 -1.1559 0.280605 162 165 182 
-0.139297 -1.03885 0.166321 54 60 62 
0.203326 -1.25834 0.254011 0 0 0 
0.238193 -1.05728 -0.117426 50 60 52 
0.283551 -1.00547 -0.120343 57 73 62 
-0.262648 -1.2586 0.289114 167 174 188 
0.143184 -1.12136 -0.314523 39 73 37 
0.28837 -0.96297 0.246111 0 0 0 
0.139754 -1.01468 0.268445 171 179 200 
0.11142 -1.01778 -0.0271289 47 71 76 
0.0821797 -1.20456 -0.109078 51 64 37 
0.149721 -1.32854 0.253107 0 0 0 
0.150731 -0.846772 0.262544 177 182 202 
-0.0845935 -1.1263 -0.0871456 41 59 37 
0.158246 -1.18338 0.263528 0 0 0 
0.175765 -0.852839 0.258696 179 181 202 
-0.135857 -1.08907 -0.0798335 47 68 48 
0.10293 -1.03999 -0.163572 102 108 76 
0.27287 -0.987779 -0.131155 58 80 73 
0.125024 -1.01508 0.269611 178 189 209 
0.220756 -1.21375 0.254641 0 0 0 
0.275857 -0.911475 0.245849 0 0 0 
-0.296878 -1.17004 0.295756 141 143 154 
-0.267387 -0.861135 0.297953 160 167 184 
-0.213291 -1.41245 0.273299 163 159 156 
0.0417216 -1.1061 -0.100318 78 94 68 
0.231615 -1.17062 0.256384 0 0 0 
-0.240834 -1.3555 0.280229 169 167 171 
0.0521332 -1.10246 -0.101318 121 107 44 
0.0657832 -1.39406 0.252652 152 159 165 
0.27811 -0.99091 -0.126706 69 90 91 
0.134653 -1.06894 -0.109044 83 91 80 
0.142659 -1.05939 -0.109521 55 92 70 
0.145264 -1.05408 -0.109581 51 90 69 
0.149702 -1.04959 -0.10988 48 83 62 
0.283647 -0.972615 0.247264 0 0 0 
0.0810814 -1.15392 0.0991844 46 65 61 
0.282466 -0.993473 -0.122215 65 82 74 
0.0593112 -1.38818 0.254121 145 158 166 
0.0628552 -0.978381 0.276152 156 162 184 
0.101502 -1.14787 0.234108 37 41 52 
0.0556118 -0.905381 0.276026 177 183 207 
-0.120925 -0.9062 0.290591 176 183 209 
-0.00972596 -1.32229 0.268597 172 178 192 
0.0805559 -1.20107 -0.111812 33 52 22 
0.0813045 -1.19501 -0.111638 73 79 42 
-0.085339 -1.12992 -0.0910026 27 51 27 
-0.238098 -1.34292 0.280796 159 159 163 
-0.138293 -1.08419 -0.0833898 38 63 41 
-0.238478 -1.27853 0.285368 163 167 178 
0.0440072 -1.10678 -0.103914 77 88 59 
0.0515701 -1.10226 -0.104536 96 92 73 
0.14038 -1.06168 -0.11236 45 78 59 
0.0665553 -1.16678 0.268435 61 63 65 
0.190597 -1.0981 0.263199 0 0 0 
0.142989 -1.05636 -0.112416 53 96 74 
0.108895 -1.16708 -0.296483 133 118 79 
-0.0887105 -1.18566 0.283353 172 176 185 
0.178231 -1.29984 0.252901 0 0 0 
0.102446 -1.12642 -0.292802 54 66 39 
0.22251 -1.00395 -0.180776 64 81 53 
0.340942 -1.07165 -0.134314 36 55 35 
0.135168 -1.39513 0.245875 0 0 0 
0.237752 -0.900937 0.252057 0 0 0 
0.280448 -0.995173 -0.124595 40 67 60 
0.254812 -1.00299 0.253812 0 0 0 
0.286116 -1.02713 0.249486 0 0 0 
-0.0406809 -1.17943 0.281124 165 170 182 
-0.0480589 -0.903441 0.285047 175 181 203 
0.101202 -1.09196 -0.296658 68 84 40 
0.139847 -1.14042 -0.324831 60 78 28 
0.189115 -1.14212 0.261965 0 0 0 
0.174149 -0.981782 0.26492 183 193 211 
0.0811064 -1.13392 0.129313 73 88 81 
0.151521 -1.06597 -0.0810908 74 83 84 
0.106636 -1.28943 0.261504 0 0 0 
-0.338284 -1.17781 0.296197 144 148 159 
0.102168 -1.30136 0.261963 0 0 0 
0.213745 -0.887426 0.255411 0 0 0 
-0.0870524 -1.1333 -0.0947418 77 89 58 
0.175762 -1.04878 0.26519 0 0 0 
-0.0858902 -1.12584 -0.0945561 32 53 33 
0.157917 -0.951 0.265857 171 179 198 
-0.0914918 -1.11666 -0.0935995 44 65 46 
0.186835 -1.05374 0.264206 0 0 0 
-0.126807 -1.09549 -0.0890752 57 74 56 
-0.132423 -1.08987 -0.0882634 48 67 48 
0.0481782 -1.10461 -0.107565 44 57 39 
0.169263 -1.40193 0.240669 0 0 0 
-0.0431766 -0.976986 0.28475 182 193 215 
0.0519571 -1.10236 -0.107864 83 90 73 
0.0604743 -1.10167 -0.108718 67 73 63 
0.0426494 -1.20344 -0.211173 129 129 67 
0.130836 -1.06745 -0.114599 72 73 61 
0.133543 -1.06532 -0.114792 56 81 60 
0.130525 -1.20303 -0.311009 54 64 23 
0.160396 -1.03838 -0.274522 63 101 76 
0.194184 -0.939647 0.260816 130 146 168 
0.145847 -1.04476 -0.115222 58 88 68 
0.145698 -1.03822 -0.114938 48 73 53 
0.257195 -1.07234 -0.127881 26 43 19 
0.227647 -1.14874 0.257517 0 0 0 
0.331174 -1.07869 -0.1358 183 176 98 
0.333595 -1.07752 -0.136003 180 173 95 
0.168447 -1.10043 -0.0179955 163 170 185 
0.192737 -1.0729 0.263485 0 0 0 
0.0192972 -1.18822 0.275776 153 163 173 
0.285243 -1.01251 -0.128331 43 79 71 
0.28331 -1.0085 -0.127966 39 70 65 
0.281384 -1.00446 -0.127601 44 73 69 
0.131345 -1.27638 -0.23388 53 74 31 
0.308299 -0.991707 0.244745 0 0 0 
0.097183 -1.41326 0.246831 0 0 0 
-0.0988948 -0.769992 0.285752 163 167 192 
0.0301692 -0.74367 0.272037 167 174 193 
0.246302 -1.07736 0.256754 0 0 0 
0.112773 -1.18733 -0.212756 98 95 45 
0.138603 -1.05137 -0.120746 60 89 73 
0.239787 -0.926834 0.252508 0 0 0 
0.0436808 -1.34455 0.260634 155 164 169 
-0.283351 -1.17711 0.294217 149 153 156 
-0.246616 -1.31272 0.284147 138 139 144 
-0.0865383 -1.12561 -0.0982614 28 49 30 
0.00992416 -0.944942 0.280591 162 167 179 
-0.123631 -1.09627 -0.093393 72 90 72 
-0.134866 -1.08502 -0.0918239 35 56 37 
0.224386 -1.17429 0.257459 0 0 0 
0.0485658 -1.1047 -0.110897 51 59 38 
0.0504442 -1.10186 -0.110971 83 96 80 
0.138349 -1.05768 -0.117973 48 72 59 
-0.235342 -1.19881 0.290379 144 147 164 
-0.0811551 -1.23066 0.281004 162 162 172 
0.140963 -1.05234 -0.118021 55 98 78 
0.142652 -1.04662 -0.117961 47 95 69 
0.266776 -1.07702 -0.131549 59 68 65 
0.328363 -1.07973 -0.137797 152 157 104 
-0.21272 -1.14823 0.292341 129 131 132 
0.33079 -1.07855 -0.137992 122 126 82 
0.0380637 -1.17787 0.274923 124 129 121 
0.237025 -1.16358 0.257247 0 0 0 
0.333213 -1.07739 -0.138187 67 90 48 
0.311226 -1.08609 -0.145524 54 84 69 
0.0486517 -0.793094 0.272626 173 181 204 
0.114437 -1.35868 0.253334 0 0 0 
0.340185 -1.07138 -0.138643 46 76 38 
-0.266928 -1.2171 0.291776 152 160 170 
0.223457 -1.0041 -0.170171 63 86 40 
0.262873 -0.988423 0.251489 0 0 0 
0.276647 -0.987192 -0.12895 54 76 70 
0.154273 -0.978386 0.266599 170 178 197 
0.278237 -0.985328 -0.129034 96 116 115 
-0.27198 -1.09232 0.295753 131 137 151 
0.278452 -0.94654 0.24665 0 0 0 
0.148752 -1.15194 0.265431 0 0 0 
0.093714 -1.05312 0.269485 95 111 131 
0.091389 -1.23324 0.267401 123 119 108 
0.134191 -1.07967 0.26694 136 148 162 
-0.316652 -1.20069 0.294763 132 141 146 
0.132818 -1.20944 -0.294893 190 178 96 
0.0967658 -0.883932 0.26999 181 196 215 
0.0794561 -1.07733 0.133656 56 63 69 
0.128129 -1.05671 -0.122978 59 72 65 
-0.116057 -1.21738 0.283175 142 137 143 
-0.0861199 -1.12177 -0.101929 40 62 41 
0.0878402 -1.07069 -0.151215 115 114 79 
0.23706 -1.07004 0.258151 0 0 0 
0.135058 -1.05633 -0.120599 51 67 56 
0.159961 -1.17437 0.264222 0 0 0 
-0.0518668 -1.26873 0.276414 158 167 176 
0.0864435 -1.11547 -0.266067 155 138 75 
0.138454 -1.04482 -0.120478 53 91 70 
0.12069 -1.41489 0.244804 0 0 0 
0.137463 -1.04113 -0.12024 61 83 67 
-0.348668 -1.09985 0.299729 161 174 193 
0.272034 -1.08228 -0.134738 91 97 77 
0.26887 -1.07538 -0.134166 67 77 68 
0.069029 -1.06267 0.128769 51 61 62 
-0.0404468 -1.25527 0.276708 160 167 177 
0.327593 -1.07945 -0.142197 50 80 51 
0.0283357 -0.949641 0.27879 171 178 197 
-0.093611 -1.30232 0.275879 166 166 178 
0.28393 -0.997158 -0.120018 39 52 43 
0.00560062 -1.20706 -0.293225 178 173 79 
0.339806 -1.07125 -0.140807 44 77 46 
0.281924 -1.01351 -0.13302 57 82 89 
0.0785163 -1.16588 0.0546609 73 91 95 
0.271425 -0.992673 -0.131206 77 120 126 
0.272148 -0.990226 -0.13118 64 92 89 
0.121318 -0.910716 0.267651 186 192 216 
-0.197769 -1.39222 0.27358 160 158 159 
0.0961976 -1.19711 -0.152063 49 76 58 
0.0750023 -1.21203 -0.123932 86 88 63 
0.112827 -1.36733 0.252648 0 0 0 
0.0758659 -1.2091 -0.123901 94 83 53 
0.0719282 -1.11384 0.139109 60 65 68 
0.129044 -1.39805 0.246035 0 0 0 
-0.090061 -1.13622 -0.105884 134 135 92 
-0.0905461 -1.1167 -0.105104 40 65 44 
0.215976 -1.21548 0.25446 0 0 0 
0.0925056 -1.13272 -0.28532 49 70 39 
0.0607055 -1.10169 -0.118464 113 124 112 
0.127273 -1.05961 -0.123008 53 62 57 
0.140696 -1.31066 0.256056 0 0 0 
0.133541 -1.05248 -0.123317 62 73 67 
0.135316 -1.04999 -0.123387 53 63 58 
0.32002 -0.962933 0.239819 0 0 0 
-0.0752444 -0.885295 0.286862 168 176 195 
0.134251 -1.04302 -0.123026 56 83 68 
0.133263 -1.03931 -0.122796 48 62 50 
0.133199 -1.036 -0.122665 58 66 58 
0.12277 -1.39825 0.246788 0 0 0 
0.151558 -1.18167 0.264713 0 0 0 
-0.119971 -1.35388 0.272504 171 170 178 
-0.22261 -1.12782 0.10594 107 119 127 
0.158475 -1.11899 0.265775 0 0 0 
0.142262 -1.07191 -0.0980744 45 46 40 
0.0986949 -1.11922 -0.279252 62 49 6 
-0.045087 -1.23596 0.278262 175 178 189 
0.130391 -1.288 -0.210222 172 172 107 
0.11008 -1.17041 -0.290783 72 73 38 
0.155213 -1.30037 0.255246 0 0 0 
0.314472 -1.0851 -0.141201 112 119 95 
0.181772 -0.93569 0.261881 182 189 208 
0.194568 -1.1867 0.259082 0 0 0 
0.144576 -1.13905 -0.318891 61 82 47 
0.271301 -0.99851 -0.133968 109 155 175 
0.197455 -0.92007 0.259019 179 185 206 
0.0696359 -1.29198 0.265847 154 161 171 
0.254023 -0.912582 0.249712 0 0 0 
0.082643 -1.14451 0.120408 32 37 43 
0.104948 -1.05866 -0.311329 57 83 50 
0.00703716 -1.1686 -0.278305 54 92 59 
0.162865 -1.10732 0.26531 0 0 0 
0.139446 -1.41119 0.243018 0 0 0 
0.152258 -1.06316 -0.0870231 55 72 66 
0.15896 -1.03777 -0.277397 52 91 72 
0.104128 -1.40448 0.247522 0 0 0 
-0.0850106 -0.798203 0.285216 167 175 201 
0.169806 -1.21393 0.259992 0 0 0 
0.0902297 -0.896308 0.271389 156 167 189 
-0.133074 -1.08534 -0.103997 32 57 35 
0.113048 -1.13381 0.184768 32 39 47 
-0.15489 -1.15133 0.28918 125 124 120 
-0.319697 -1.1513 0.297331 164 167 179 
0.123896 -1.05498 -0.125566 45 55 54 
0.218493 -1.22459 0.253881 0 0 0 
0.130246 -1.05112 -0.125985 57 72 71 
0.1311 -1.04822 -0.125955 53 63 64 
0.0487256 -1.17316 0.273598 137 140 131 
0.123036 -1.05789 -0.125596 50 65 62 
-0.248751 -1.10274 0.294661 141 144 161 
0.130108 -1.04452 -0.125732 38 43 46 
0.275311 -1.07862 -0.139791 58 78 68 
0.103221 -1.03867 -0.312197 61 87 50 
0.332429 -1.07222 -0.144598 40 73 44 
0.270793 -1.02684 -0.137502 112 133 83 
0.268487 -1.017 -0.136939 31 61 51 
0.268381 -0.999701 -0.136298 127 179 204 
-0.0769807 -1.25827 0.278679 165 167 179 
-0.104513 -1.25888 0.279717 149 152 161 
0.10402 -1.26417 0.264491 163 177 188 
0.0946383 -1.09597 -0.291636 174 166 104 
-0.138428 -1.22219 0.284402 144 143 148 
0.273493 -1.09559 -0.096024 33 54 49 
0.088765 -1.05252 0.0838542 65 81 86 
0.240986 -0.978495 0.254799 0 0 0 
0.299522 -1.08538 -0.146842 33 52 46 
0.145077 -1.02769 -0.0902386 44 64 55 
0.147944 -1.05203 -0.10979 53 88 70 
0.203862 -1.04161 0.262614 0 0 0 
-0.108257 -1.17781 0.285472 173 173 173 
-0.146433 -0.874739 0.291859 166 175 191 
-0.138268 -1.07986 -0.0953049 37 55 39 
0.198866 -1.05699 -0.156869 79 77 64 
-0.306711 -1.1537 0.296871 162 166 177 
-0.109906 -1.09968 -0.110443 58 86 63 
0.113385 -1.13388 0.181136 35 38 47 
0.261268 -0.990672 0.252084 0 0 0 
-0.342409 -1.13192 0.29849 151 157 173 
0.155122 -1.29749 0.255891 0 0 0 
0.131095 -0.924235 0.26745 178 184 204 
0.227402 -1.06978 -0.137868 27 36 35 
0.0399235 -0.746089 0.271338 174 181 192 
0.0323394 -1.20378 -0.242078 131 134 74 
0.07405 -1.39381 0.251186 155 162 169 
0.211031 -1.13092 0.259666 0 0 0 
0.3155 -1.08575 -0.145872 73 104 89 
-0.0711904 -1.23211 0.279932 166 166 178 
0.0731244 -1.10812 -0.258379 44 66 27 
0.129435 -1.07434 0.267154 102 113 131 
0.318859 -1.08497 -0.146128 65 96 81 
0.180369 -1.1319 -0.0292306 150 155 174 
0.224588 -0.982225 0.257868 0 0 0 
0.321307 -1.08374 -0.146292 58 89 73 
0.322848 -1.08205 -0.146362 47 78 60 
0.156043 -0.957347 0.26579 166 174 193 
0.331416 -1.07422 -0.146808 51 84 63 
0.149012 -1.29396 0.257321 0 0 0 
0.265556 -1.01823 -0.139266 51 86 69 
0.193765 -1.16524 0.260778 0 0 0 
0.0534971 -1.10904 -0.188512 55 84 56 
0.265298 -0.997907 -0.138525 113 169 196 
0.265143 -0.994899 -0.138405 103 151 165 
0.127466 -1.35038 0.253321 0 0 0 
-0.128687 -1.3612 0.271426 167 165 170 
0.0281412 -1.25187 -0.196335 123 117 54 
0.26499 -0.991883 -0.138286 68 109 115 
0.266445 -0.986951 -0.138234 58 79 71 
0.0592588 -1.14971 0.204768 40 43 52 
0.16949 -0.942956 0.264188 163 168 188 
0.241921 -1.13886 0.25607 0 0 0 
0.110153 -1.07411 0.249271 32 36 45 
0.277394 -0.993338 -0.126732 61 86 90 
0.102829 -1.0681 0.174823 54 57 66 
-0.315537 -1.1372 0.297478 134 137 150 
0.100799 -1.11362 -0.29332 41 47 19 
0.130757 -0.962181 0.268413 175 183 209 
0.0717006 -1.21732 -0.132991 53 68 38 
0.130249 -1.1788 -0.261424 45 69 43 
-0.0721277 -1.35129 0.269369 174 177 186 
0.131037 -1.17613 -0.261396 35 58 30 
0.0350317 -0.977531 0.278959 160 172 194 
0.0807948 -1.20729 -0.1121 70 89 57 
-0.103724 -1.13281 -0.115949 89 101 60 
0.18572 -1.32255 0.249315 0 0 0 
0.0989977 -1.11616 -0.287808 109 103 45 
-0.10362 -1.12892 -0.115824 48 77 52 
0.229829 -1.03431 -0.173635 34 44 44 
0.151013 -1.06579 -0.0839965 63 78 75 
-0.0722492 -0.800775 0.283857 164 173 200 
-0.101013 -1.10595 -0.115247 44 71 46 
0.119033 -0.841056 0.265343 173 180 199 
0.217297 -1.26068 0.253074 0 0 0 
0.120992 -1.05383 -0.131365 41 46 43 
0.0399053 -1.02644 -0.0166207 56 66 76 
0.134543 -1.04328 -0.132096 53 68 62 
0.101178 -1.09563 0.175119 30 35 42 
0.120891 -1.17946 -0.259483 53 86 73 
-0.0705245 -0.762351 0.283865 166 173 201 
0.0436817 -1.11539 0.0885066 73 84 88 
0.278353 -1.08286 -0.145049 31 37 30 
-0.190611 -0.879465 0.295272 147 161 180 
0.315109 -1.08561 -0.148107 56 88 74 
-0.12102 -1.15005 0.287008 147 144 143 
0.328972 -1.07046 -0.148706 32 67 47 
-0.128976 -1.09069 -0.0966154 36 55 36 
0.263566 -1.00566 -0.141211 106 163 189 
-0.0870769 -1.12174 -0.0904711 38 60 37 
-0.041917 -1.15175 0.282109 166 172 184 
0.262365 -0.999124 -0.140891 121 176 201 
0.262058 -0.993092 -0.140659 62 100 105 
0.119305 -1.1758 -0.278727 53 72 44 
0.14209 -1.15325 0.265848 124 125 127 
0.257118 -1.07923 0.255243 0 0 0 
-0.0754727 -1.36916 0.268186 170 173 179 
0.133028 -1.2068 -0.292334 187 180 92 
-0.0496205 -1.14594 0.282794 171 178 192 
0.280289 -0.992192 -0.124453 60 79 73 
0.149257 -1.06825 -0.0838717 63 78 75 
0.273622 -1.09582 -0.105983 41 65 49 
0.274779 -1.01495 -0.134907 116 109 67 
-0.100816 -1.10989 -0.119219 47 70 50 
-0.0807846 -0.868308 0.287273 166 174 197 
-0.125791 -0.732895 0.287741 157 168 192 
-0.0250557 -0.800377 0.280675 166 170 197 
0.0518755 -1.1056 -0.130811 79 81 46 
0.119537 -1.05326 -0.134276 81 95 78 
0.125904 -1.04938 -0.134636 90 105 80 
0.127689 -1.04687 -0.13469 80 97 78 
0.25958 -1.08476 -0.146081 120 118 124 
0.278851 -1.08315 -0.147509 62 65 56 
0.235778 -1.10349 0.258384 0 0 0 
0.0386154 -0.921344 0.278098 169 176 200 
0.292988 -1.08479 -0.14865 49 64 58 
