# .PCD v0.7 - Point Cloud Data file format
VERSION 0.7
FIELDS x y z rgba
SIZE 4 4 4 4
TYPE F F F U
COUNT 1 1 1 1
WIDTH 271
HEIGHT 1
VIEWPOINT 0 0 0 1 0 0 0
POINTS 271
DATA ascii
-0.099400707 -0.11583428 0.96425152 20275649
-0.10091916 -0.11621765 0.96535969 20275649
-0.099191725 -0.11336073 0.96222854 20275649
-0.098771028 -0.11414915 0.96561599 20275649
-0.1002879 -0.11453213 0.96672291 20275649
-0.10030563 -0.11271414 0.96732754 20275649
-0.098774187 -0.11442816 0.97482574 20275649
-0.098318808 -0.11521348 0.97818607 20275649
-0.09719874 -0.11613107 0.98229206 20275649
-0.096723005 -0.11691124 0.98563737 20275649
-0.098871581 -0.11715364 0.98597461 20275649
-0.093459122 -0.088371493 0.95904851 20275649
-0.087746821 -0.087996237 0.96648806 20275649
-0.030012766 -0.040332586 0.9669804 23773826
-0.032083504 -0.040489297 0.96728218 23773826
-0.043994524 -0.039835405 0.96388 20858502
-0.026480524 -0.039873514 0.97223192 23773826
-0.029134972 -0.0398077 0.97175145 23773826
-0.044611461 -0.037827104 0.96370459 20858502
-0.044905864 -0.038637482 0.96633697 20858502
-0.027372712 -0.038704682 0.97466397 23773826
-0.013985531 -0.13070573 0.88964188 27206467
-0.0085837264 -0.13016184 0.89339936 27206467
-0.012900585 -0.12868474 0.88860708 27206467
-0.0094542969 -0.1282611 0.89001292 27206467
-0.026491692 -0.12806956 0.87534606 27206467
-0.016392151 -0.12698957 0.88210213 27206467
-0.040784605 -0.12774311 0.8637377 27206467
-0.038062043 -0.12736964 0.86440456 27206467
-0.034032814 -0.12689912 0.86663401 27206467
-0.028686943 -0.12632988 0.87041998 27206467
-0.023321209 -0.12575662 0.87419337 27206467
-0.041814178 -0.1261286 0.86286026 27206467
-0.041037887 -0.12589985 0.8611747 27206467
-0.037016928 -0.12542298 0.86340797 27206467
-0.031680442 -0.12484331 0.86719739 27206467
-0.025671197 -0.12420942 0.87175542 27206467
-0.038050309 -0.1238072 0.86253226 27206467
-0.032718055 -0.12321629 0.86632222 27206467
-0.032454103 -0.12148518 0.86701143 27206467
-0.023843179 -0.1206071 0.87469196 27206467
-0.032191083 -0.11975015 0.86770022 27206467
-0.025537884 -0.11901915 0.87303603 27206467
-0.033877283 -0.11818466 0.86604327 27206467
-0.029184325 -0.11761332 0.86903787 27206467
-0.038290516 -0.11702591 0.86372858 27206467
-0.036859676 -0.1167465 0.86282343 27206467
-0.03477826 -0.11640694 0.86269855 27206467
-0.03996893 -0.11547913 0.86207074 27206467
-0.039838612 -0.11532357 0.85960418 27206467
-0.038414329 -0.11504551 0.85870314 27206467
-0.041645601 -0.11394005 0.86041337 27206467
-0.042165808 -0.11385266 0.85716736 27206467
-0.04204604 -0.11370334 0.85470849 27206467
-0.04202842 -0.11227829 0.86032122 27206467
-0.042547271 -0.11219675 0.85707587 27206467
-0.043075971 -0.11211713 0.8538366 27206467
-0.04176566 -0.11054944 0.86101151 27206467
-0.094837867 -0.12276443 0.96926033 20275649
-0.093073957 -0.12077402 0.97254539 20275649
-0.094264485 -0.12073197 0.96734828 20275649
-0.033930793 -0.1108702 0.97082454 17425861
-0.08960674 -0.11875229 0.98188794 20275649
-0.090770379 -0.118715 0.97667545 20275649
-0.092495397 -0.11873444 0.97062886 20275649
-0.093146913 -0.11865009 0.96628243 20275649
-0.034184448 -0.10914428 0.97418183 17425861
-0.031417131 -0.10870966 0.9748103 17425861
-0.091818847 -0.11683247 0.97221917 20275649
-0.093011677 -0.11681094 0.96702719 20275649
-0.031682618 -0.10696989 0.97817189 17425861
-0.029495539 -0.10659365 0.97797734 17425861
-0.095870644 -0.1010047 0.98101974 20275649
-0.095930867 -0.10091827 0.97750026 20275649
-0.095462047 -0.10076118 0.97483188 20275649
-0.098428346 -0.099489495 0.97753191 20275649
-0.098493829 -0.099410102 0.97401708 20275649
-0.096953914 -0.099109344 0.97304267 20275649
-0.099378251 -0.097762622 0.97658551 20275649
-0.098907784 -0.097613283 0.97391742 20275649
-0.096291803 -0.097159721 0.97463238 20275649
-0.099321693 -0.095816448 0.97381794 20275649
-0.096169062 -0.095280722 0.97537696 20275649
-0.039061487 -0.12733719 0.83641917 27789320
-0.050846055 -0.12923522 0.84799695 27206467
-0.038904235 -0.12230472 0.86476564 27206467
-0.036000267 -0.12056575 0.85807067 27206467
-0.070842609 -0.11652528 0.86001086 27206467
-0.06893383 -0.11367547 0.85747063 27206467
-0.041419104 -0.11503416 0.95596534 17425861
-0.036549762 -0.11169523 0.95353609 17425861
-0.089324474 -0.13104576 0.9997738 20275649
-0.091845065 -0.13044265 0.99473327 20275649
-0.076224074 -0.12283654 0.97213238 20275649
-0.012977406 -0.10779444 0.96474606 17425861
-0.020533487 -0.10908326 0.96428543 17425861
-0.021243349 -0.10878889 0.96228451 17425861
-0.018829629 -0.1048714 0.94591385 17425861
-0.027623162 -0.10727048 0.94961435 17425861
-0.033658087 -0.10914973 0.95325071 17425861
-0.041657761 -0.11184452 0.95903116 17425861
-0.087141559 -0.12833749 0.99741453 20275649
-0.091694236 -0.12967579 0.99978358 20275649
-0.091662034 -0.12911102 0.99715072 20275649
-0.07818909 -0.11830923 0.95790523 20275649
-0.016178206 -0.10711809 0.96804816 17425861
-0.019599602 -0.10791516 0.96881646 17425861
-0.021658584 -0.10816582 0.96820742 17425861
-0.023039088 -0.10814305 0.96690673 17425861
-0.024419084 -0.10812032 0.96560627 17425861
-0.018453285 -0.10452026 0.95392758 17425861
-0.026046067 -0.10524859 0.95076567 17425861
-0.038774371 -0.10930622 0.95873398 17425861
-0.047420129 -0.11229314 0.96522611 17425861
-0.087584391 -0.12670934 0.99791282 20275649
-0.09082666 -0.12750933 0.99884981 20275649
-0.090145707 -0.1266672 0.99549955 20275649
-0.084264785 -0.12363473 0.98640233 20275649
-0.079065412 -0.12087551 0.97799379 20275649
-0.077160344 -0.1189154 0.97047335 20275649
-0.079771936 -0.11944138 0.97067434 20275649
-0.081733927 -0.11969353 0.97015625 20275649
-0.079838783 -0.11830232 0.96528822 20275649
-0.023488745 -0.10696128 0.97012895 17425861
-0.024866328 -0.10693864 0.96883124 17425861
-0.026243672 -0.10691592 0.96753329 17425861
-0.024259791 -0.10551703 0.96275371 17425861
-0.017059997 -0.10076829 0.94693202 17425861
-0.020468399 -0.10157103 0.94770998 17425861
-0.03721267 -0.10730784 0.95985752 17425861
-0.045870259 -0.11031467 0.96632713 17425861
-0.088681906 -0.12535673 0.99912399 20275649
-0.089307681 -0.12506011 0.9972046 20275649
-0.083411902 -0.12143512 0.98547333 20275649
-0.0814659 -0.12003566 0.98065835 20275649
-0.080181748 -0.11891152 0.97654921 20275649
-0.08278662 -0.11944119 0.97675413 20275649
-0.084096178 -0.1194196 0.97552019 20275649
-0.086692497 -0.1199495 0.97573346 20275649
-0.08093825 -0.1168948 0.96652836 20275649
-0.023288801 -0.10493309 0.96997303 17425861
-0.02534233 -0.10518749 0.96936721 17425861
-0.02739276 -0.10544182 0.96876365 17425861
-0.026753709 -0.10458787 0.96537966 17425861
-0.02282615 -0.10177118 0.95579356 17425861
-0.087138787 -0.12232243 0.99484891 20275649
-0.0819107 -0.11895073 0.98383003 20275649
-0.083214641 -0.11892931 0.9826017 20275649
-0.083871335 -0.11863029 0.98065418 20275649
-0.085176423 -0.11860884 0.97942454 20275649
-0.085837409 -0.1183098 0.97747308 20275649
-0.086501226 -0.11801078 0.975519 20275649
-0.082678348 -0.1157686 0.96849161 20275649
-0.022414431 -0.10262249 0.96912748 17425861
-0.025144354 -0.10315744 0.96921057 17425861
-0.027195856 -0.1034136 0.96860522 17425861
-0.027230874 -0.1028331 0.96591681 17425861
-0.027941242 -0.10253135 0.9639197 17425861
-0.081753612 -0.11991302 0.99685949 20275649
-0.079753891 -0.11733624 0.98679429 20275649
-0.080406725 -0.11703548 0.98485166 20275649
-0.081711978 -0.11701402 0.9836219 20275649
-0.084313333 -0.11755111 0.98382622 20275649
-0.084322408 -0.11697096 0.98116225 20275649
-0.083134457 -0.11409086 0.96900493 20275649
-0.083175108 -0.11351021 0.9663114 20275649
-0.024947211 -0.10112374 0.96905512 17425861
-0.027672008 -0.10166243 0.96914095 17425861
-0.028378651 -0.10135901 0.9671486 17425861
-0.030426875 -0.1016171 0.96654552 17425861
-0.031804413 -0.1015944 0.96524769 17425861
-0.080309346 -0.11917854 1.0031228 20275649
-0.08093679 -0.11887641 1.0012052 20275649
-0.081566766 -0.1185742 0.9992848 20275649
-0.081543595 -0.11799099 0.99665338 20275649
-0.08086507 -0.11479241 0.98269969 20275649
-0.084763736 -0.1158954 0.98433286 20275649
-0.086792558 -0.11381937 0.9731347 20275649
-0.088105097 -0.1137978 0.97189814 20275649
-0.024078354 -0.098803855 0.96820933 17425861
-0.083327025 -0.11750064 1.001199 16777216
-0.081801474 -0.11501128 0.99958235 20275649
-0.024696574 -0.096832015 0.98514062 17425861
-0.024519458 -0.093599744 0.9796775 17425861
-0.023867652 -0.092707731 0.97632724 17425861
-0.022550628 -0.091525644 0.97228223 17425861
-0.02636905 -0.091829598 0.97891718 17425861
-0.026396707 -0.091223665 0.97625035 17425861
-0.026430115 -0.090617649 0.97357816 17425861
-0.097215533 -0.10610323 0.97950608 20275649
-0.029541895 -0.09125603 0.98218781 17425861
-0.028891787 -0.090353064 0.9788422 17425861
-0.029593214 -0.090036869 0.97686154 17425861
-0.031637892 -0.090307765 0.97625452 17425861
-0.037691653 -0.092340142 0.97978646 17425861
-0.081748933 -0.097706132 0.96466261 20275649
-0.093227431 -0.10239043 0.97495824 20275649
-0.11162739 -0.10970207 0.99060625 20275649
-0.032056317 -0.089788675 0.98211557 17425861
-0.033423647 -0.089766182 0.98082703 17425861
-0.036130086 -0.090334423 0.9809137 17425861
-0.040835589 -0.091789015 0.98307234 17425861
-0.044859499 -0.09294837 0.98455423 17425861
-0.061044678 -0.087472595 0.94689173 20275649
-0.081575081 -0.09571404 0.96446162 20275649
-0.090512812 -0.099243827 0.97186095 20275649
-0.098783523 -0.10247816 0.97856992 20275649
-0.10828431 -0.106305 0.98675734 20275649
-0.035237536 -0.088622294 0.98273009 17425861
-0.037939981 -0.089194231 0.98281842 17425861
-0.04197225 -0.090360828 0.98428875 17425861
-0.045992896 -0.091527574 0.98576981 17425861
-0.070527136 -0.089273863 0.95474881 20275649
-0.090335682 -0.097270101 0.97165304 20275649
-0.097970843 -0.10022676 0.97763222 20275649
-0.10620725 -0.10348172 0.9843623 20275649
-0.03704913 -0.087485738 0.98463124 17425861
-0.039747909 -0.088061348 0.98472089 17425861
-0.04444243 -0.089534454 0.98687929 17425861
-0.047790974 -0.09040945 0.9876731 17425861
-0.050466508 -0.090985559 0.98778468 17425861
-0.083766282 -0.092917554 0.96693903 20275649
-0.091424242 -0.095892057 0.97288686 20275649
-0.097790748 -0.098267712 0.97741824 20275649
-0.10287537 -0.10004443 0.98052555 20275649
-0.03685008 -0.085453853 0.98447651 17425861
-0.03888151 -0.085732333 0.98387808 17425861
-0.04357639 -0.087214507 0.98603088 17425861
-0.046926215 -0.088095017 0.98682016 17425861
-0.048276231 -0.088072754 0.9855482 17425861
-0.086127445 -0.092127621 0.9696129 20275649
-0.091879904 -0.094216131 0.9733997 20275649
-0.09698154 -0.096003525 0.9764846 20275649
-0.041379705 -0.08428172 0.98381132 17425861
-0.044733956 -0.085167617 0.98459393 17425861
-0.048107341 -0.085425749 0.98272961 17425861
-0.029769942 -0.078333825 0.97733778 17425861
-0.045930088 -0.082485348 0.98049611 17425861
-0.10170788 -0.090001263 0.97090298 20275649
-0.10340753 -0.088948764 0.9728629 20275649
-0.10471858 -0.088927157 0.97162741 20275649
-0.057396024 -0.13227484 0.850115 27206467
-0.076465234 -0.13381422 0.86279458 27206467
-0.080421567 -0.13246229 0.86185449 27206467
-0.079122528 -0.13241351 0.86300182 27206467
-0.075735405 -0.13195068 0.86194897 27206467
-0.076892897 -0.13005218 0.85808921 27206467
-0.074903488 -0.12986755 0.85849792 27206467
-0.076749966 -0.12811273 0.85537857 27206467
-0.07476218 -0.1279301 0.85578609 27206467
-0.072080225 -0.12761356 0.85545933 27206467
-0.071932957 -0.12568778 0.85275346 27206467
-0.069954336 -0.12550758 0.85315329 27206467
-0.070501849 -0.12372173 0.8511821 27206467
-0.068526164 -0.12354342 0.85157949 27206467
-0.070468351 -0.12201981 0.8510716 27206467
-0.067098215 -0.12158736 0.8500064 27206467
-0.063736826 -0.12115521 0.84893316 27206467
-0.070434526 -0.12031791 0.85096091 27206467
-0.068458945 -0.12014379 0.85135859 27206467
-0.064399049 -0.11959129 0.84955591 27206467
-0.07109946 -0.11874031 0.85158008 27206467
-0.068425268 -0.11844388 0.8512482 27206467
-0.06506145 -0.1180235 0.8501783 27206467
-0.069786057 -0.11698843 0.85259968 27206467
-0.065723598 -0.11645169 0.85080051 27206467
-0.0038949847 -0.10841255 0.89555579 30704644
-0.014905289 -0.11152812 0.9262163 24356679
-0.012979105 -0.11136563 0.92657119 24356679
-0.0070047081 -0.107289 0.89940065 30704644
-0.031086937 -0.11251026 0.94408637 17425861
