# .PCD v0.7 - Point Cloud Data file format
VERSION 0.7
FIELDS x y z rgba
SIZE 4 4 4 4
TYPE F F F U
COUNT 1 1 1 1
WIDTH 1093
HEIGHT 1
VIEWPOINT 0 0 0 1 0 0 0
POINTS 1093
DATA ascii
-0.094379574 0.11996032 0.93307513 28567431
-0.094929248 0.12042872 0.93656558 28567431
-0.094163001 0.12062072 0.93856734 28567431
-0.089250758 0.1206423 0.94157988 28567431
-0.087831035 0.12069576 0.94283348 28567431
-0.086411491 0.12074909 0.94408709 28567431
-0.084991932 0.12080244 0.94534069 28567431
-0.084858149 0.1211336 0.94810921 28567431
-0.083292827 0.12151865 0.9521417 28567431
-0.072969317 0.12255893 0.96655911 28567431
-0.070287362 0.12233379 0.96627659 28567431
-0.062277913 0.12165653 0.96539801 28567431
-0.028188482 0.1186989 0.96104485 28567431
-0.023808077 0.11804841 0.9582867 28567431
-0.094248012 0.11937232 0.91315979 28567431
-0.092189819 0.11928464 0.91365224 28567431
-0.090798542 0.11933693 0.91488093 28567431
-0.088744983 0.11924911 0.91536945 28567431
-0.087354973 0.1193014 0.91659659 28567431
-0.085306033 0.11921341 0.91708106 28567431
-0.083185568 0.11945821 0.92027849 28567431
-0.081795588 0.11951042 0.92150599 28567431
-0.08171232 0.1198437 0.92422956 28567431
-0.082498461 0.12179448 0.9394359 28567431
-0.081732616 0.12198833 0.94143766 28567431
-0.080320194 0.12204138 0.94268471 28567431
-0.077495858 0.1221476 0.94517869 28567431
-0.076083481 0.12220073 0.94642574 28567431
-0.074034572 0.12211276 0.9469102 28567431
-0.074530289 0.12258919 0.95044786 28567431
-0.063373879 0.12267864 0.95764905 28567431
-0.061338231 0.12259019 0.9581216 28567431
-0.031341121 0.12091248 0.96208435 28567431
-0.025746644 0.11996768 0.95774907 28567431
-0.021372646 0.11930694 0.95498604 28567431
-0.018210366 0.11893069 0.95380372 28567431
-0.080592588 0.12040249 0.91446656 28567431
-0.077898979 0.12016974 0.91419524 28567431
-0.075866178 0.12007918 0.91466528 28567431
-0.075142995 0.12027339 0.9166289 28567431
-0.074416518 0.12046773 0.9185949 28567431
-0.074337795 0.12080467 0.92131454 28567431
-0.076104373 0.1219073 0.92902893 28567431
-0.074607208 0.12229762 0.93300074 28567431
-0.072568431 0.12220734 0.93347615 28567431
-0.070532873 0.1221168 0.93394881 28567431
-0.067860022 0.12188334 0.93365902 28567431
-0.066470236 0.12193561 0.9348864 28567431
-0.064443409 0.12184472 0.93535131 28567431
-0.06154339 0.12228782 0.94056231 28567431
-0.059520632 0.12219686 0.94102305 28567431
-0.058130845 0.12224916 0.94225043 28567431
-0.029669091 0.1219833 0.95678443 28567431
-0.069749549 0.12163324 0.9159413 28567431
-0.069675103 0.12197403 0.91865653 28567431
-0.070241839 0.12245972 0.92213017 28567431
-0.068862364 0.12251163 0.92334825 28567431
-0.067482874 0.12256347 0.92456657 28567431
-0.065460548 0.12247059 0.92502743 28567431
-0.062800094 0.12223256 0.92472762 28567431
-0.058865383 0.12170462 0.922903 28567431
-0.057496399 0.12175611 0.92411178 28567431
-0.052652657 0.12210722 0.92971402 28567431
-0.049388975 0.1217229 0.92862159 28567431
-0.040688187 0.12154312 0.93233067 28567431
-0.032093987 0.12288023 0.94786805 28567431
-0.010959521 0.12080211 0.94401032 28567431
-0.0090174228 0.12070615 0.94440049 28567431
-0.051633433 0.12260092 0.91986686 28567431
-0.050910041 0.12279914 0.92183036 28567431
-0.046925023 0.122607 0.92270023 28567431
-0.044936895 0.12251083 0.92313117 28567431
-0.042951688 0.12241451 0.92355937 28567431
-0.040341482 0.12217069 0.92321509 28567431
-0.038990408 0.12222157 0.92440826 28567431
-0.037013948 0.12212495 0.92482883 28567431
-0.035664544 0.12217561 0.92602056 28567431
-0.034314558 0.12222639 0.92721254 28567431
-0.033585489 0.12242482 0.92918104 28567431
-0.032234237 0.12247565 0.93037432 28567431
-0.031500369 0.12267413 0.932347 28567431
-0.030147865 0.122725 0.93354136 28567431
-0.029409632 0.12292377 0.93551797 28567431
-0.028055206 0.12297467 0.93671364 28567431
-0.027312651 0.12317359 0.93869394 28567431
-0.026915953 0.12412716 0.93227357 28567431
-0.096125618 0.12874082 0.91206211 28567431
-0.094064757 0.12864333 0.91255754 28567431
-0.092006981 0.12854582 0.91305047 28567431
-0.089288577 0.12829816 0.91280264 28567431
-0.087237999 0.12820035 0.91328901 28567431
-0.084529862 0.12795237 0.91303176 28567431
-0.082486987 0.12785429 0.91351146 28567431
-0.12213008 0.13386339 0.92072409 28567431
-0.1173154 0.13315994 0.91835505 28567431
-0.11251597 0.13245589 0.91597277 28567431
-0.10840498 0.13190284 0.91430634 28567431
-0.10430636 0.13134938 0.91262954 28567431
-0.10156128 0.13109887 0.91240531 28567431
-0.098822132 0.13084796 0.91217595 28567431
-0.096756756 0.13074878 0.91267556 28567431
-0.09336184 0.13034579 0.91170138 28567431
-0.091305301 0.13024619 0.91219312 28567431
-0.088588521 0.12999454 0.91194421 28567431
-0.086539462 0.12989464 0.91242939 28567431
-0.083833128 0.1296427 0.91217119 28567431
-0.081791535 0.12954253 0.91264981 28567431
-0.079752922 0.12944233 0.91312581 28567431
-0.077717483 0.12934196 0.91359919 28567431
-0.1028661 0.13327023 0.91374737 28567431
-0.10012387 0.13301551 0.91352075 28567431
-0.097387955 0.1327607 0.91328901 28567431
-0.093324974 0.13219798 0.91158122 28567431
-0.09126851 0.13209647 0.91207284 28567431
-0.088551834 0.13184088 0.91182417 28567431
-0.08584106 0.131585 0.91157013 28567431
-0.083136246 0.131329 0.91131085 28567431
-0.081755251 0.13138089 0.91253036 28567431
-0.079059169 0.13112453 0.91226321 28567431
-0.07702516 0.13102216 0.91273528 28567431
-0.074994296 0.13091967 0.91320497 28567431
-0.072965965 0.13081709 0.91367191 28567431
-0.070289448 0.13055989 0.9133876 28567431
-0.06826897 0.13045701 0.9138481 28567431
-0.065602556 0.13019961 0.91355449 28567431
-0.063589409 0.13009641 0.91400844 28567431
-0.061579078 0.12999311 0.91445965 28567431
-0.060215801 0.13004434 0.9156633 28567431
-0.058210298 0.1299409 0.91611058 28567431
-0.10075663 0.13503537 0.9141323 28567431
-0.097351283 0.13462088 0.91316813 28567431
-0.094621047 0.13436186 0.91293126 28567431
-0.091896936 0.13410249 0.91268939 28567431
-0.088515356 0.1336872 0.91170412 28567431
-0.083760247 0.13332337 0.91193205 28567431
-0.081059769 0.13306326 0.91166896 28567431
-0.078365505 0.13280281 0.91140085 28567431
-0.076332912 0.13269848 0.91187173 28567431
-0.074303389 0.13259387 0.91234022 28567431
-0.072276756 0.1324892 0.91280621 28567431
-0.069601685 0.13222814 0.91252059 28567431
-0.065566584 0.13201815 0.91343647 28567431
-0.05753161 0.13159686 0.91523641 28567431
-0.056171566 0.13164794 0.91643769 28567431
-0.054811388 0.13169912 0.9176386 28567431
-0.046836168 0.13127559 0.91938633 28567431
-0.038908198 0.13085034 0.92109162 28567431
-0.037559897 0.13090107 0.92228228 28567431
-0.036211684 0.13095167 0.92347282 28567431
-0.034863412 0.13100243 0.92466348 28567431
-0.020772547 0.13135135 0.93578297 28567431
-0.0023290962 0.1325874 0.9560402 28567431
-0.0021470338 0.13295606 0.95884866 28567431
-0.098649994 0.1367965 0.91451484 28567431
-0.095250681 0.13637576 0.91354579 28567431
-0.092525095 0.13611269 0.91330534 28567431
-0.089805603 0.13584918 0.91305989 28567431
-0.087092027 0.13558558 0.91280895 28567431
-0.084384248 0.1353218 0.91255277 28567431
-0.081682414 0.13505766 0.91229135 28567431
-0.078986511 0.13479334 0.9120248 28567431
-0.076952592 0.13468707 0.9124971 28567431
-0.074921906 0.13458064 0.91296691 28567431
-0.072240785 0.13431573 0.91268724 28567431
-0.070217401 0.13420901 0.91315037 28567431
-0.067546502 0.1339438 0.91286141 28567431
-0.064882025 0.13367832 0.91256744 28567431
-0.062870249 0.13357112 0.91301996 28567431
-0.060861677 0.13346377 0.91347033 28567431
-0.059500277 0.133515 0.91467255 28567431
-0.057495877 0.13340759 0.91511875 28567431
-0.056135893 0.1334587 0.91632003 28567431
-0.054136157 0.133351 0.91676229 28567431
-0.052139327 0.13324326 0.91720182 28567431
-0.050145477 0.13313544 0.91763884 28567431
-0.048789784 0.1331864 0.91883594 28567431
-0.046166927 0.1329194 0.91850513 28567431
-0.044182003 0.13281113 0.91893405 28567431
-0.037524626 0.13269582 0.92216569 28567431
-0.034827933 0.13279724 0.9245469 28567431
-0.033479691 0.13284793 0.92573756 28567431
-0.029435053 0.13300002 0.92930919 28567431
-0.028086618 0.13305077 0.93049973 28567431
-0.025390208 0.13315213 0.93288106 28567431
-0.024041787 0.13320285 0.93407148 28567431
-0.022083879 0.13309368 0.93447715 28567431
-0.020737201 0.13314423 0.93566626 28567431
-0.018783391 0.13303494 0.93606788 28567431
-0.01743789 0.13308561 0.93725568 28567431
-0.016092718 0.13313603 0.93844384 28567431
-0.014747307 0.13318667 0.93963176 28567431
-0.01340197 0.1332373 0.94081968 28567431
-0.012056872 0.13328779 0.94200772 28567431
-0.010711595 0.13333836 0.94319564 28567431
-0.0099628419 0.13354945 0.94518048 28567431
-0.0086158663 0.13360006 0.94636971 28567431
-0.0072692186 0.13365075 0.94755894 28567431
-0.0059223026 0.13370129 0.94874829 28567431
-0.0051663071 0.13391262 0.95073956 28567431
-0.00017412007 0.13464874 0.95911855 28567431
0.00059683621 0.13486063 0.96112293 28567431
-0.085008055 0.13732409 0.91317338 28567431
-0.082305089 0.13705614 0.9129135 28567431
-0.080265045 0.13694796 0.91339141 28567431
-0.077572301 0.13667962 0.91312236 28567431
-0.075539827 0.13657129 0.91359359 28567431
-0.07285741 0.1363025 0.91331559 28567431
-0.07083264 0.13619381 0.91378015 28567431
-0.068160504 0.13592473 0.91349274 28567431
-0.065494761 0.13565531 0.91320008 28567431
-0.062834427 0.13538584 0.91290218 28567431
-0.061471447 0.13543698 0.91410595 28567431
-0.05946438 0.13532764 0.91455489 28567431
-0.056817636 0.1350576 0.91424507 28567431
-0.055459008 0.13510862 0.91544479 28567431
-0.054100245 0.13515982 0.91664451 28567431
-0.051465333 0.13488922 0.91632444 28567431
-0.049473211 0.13477924 0.91676039 28567431
-0.048119038 0.13483021 0.91795629 28567431
-0.046131238 0.13472015 0.91838807 28567431
-0.044146344 0.13461 0.91881722 28567431
-0.042164311 0.1344997 0.91924375 28567431
-0.040185526 0.13438934 0.9196679 28567431
-0.038837388 0.13443998 0.92085856 28567431
-0.035516039 0.1343801 0.92246777 28567431
-0.034792617 0.13459206 0.92443031 28567431
-0.033444121 0.13464269 0.92562097 28567431
-0.028782159 0.13463336 0.92841417 28567431
-0.023394808 0.13483593 0.93317145 28567431
-0.022048429 0.1348865 0.93436044 28567431
-0.020093188 0.13477519 0.93476361 28567431
-0.018140718 0.13466388 0.93516392 28567431
-0.01740256 0.13487634 0.93713945 28567431
-0.015453428 0.13476494 0.93753713 28567431
-0.014109522 0.13481539 0.93872386 28567431
-0.013366535 0.13502821 0.94070345 28567431
-0.012021318 0.13507876 0.94189137 28567431
-0.010675952 0.13512927 0.94307929 28567431
-0.0093307644 0.13517988 0.94426721 28567431
-0.0085805804 0.13539293 0.946253 28567431
-0.0072336942 0.13544366 0.94744259 28567431
-0.0030216724 0.13597158 0.95380872 28567431
-0.0022578984 0.13618514 0.95580643 28567431
-0.0014911741 0.1363987 0.95780712 28567431
-0.078847885 0.13883829 0.91449147 28567431
-0.076812461 0.13872811 0.91496545 28567431
-0.074126989 0.13845548 0.91469008 28567431
-0.071447849 0.13818273 0.91440946 28567431
-0.068774626 0.13790962 0.91412359 28567431
-0.066106975 0.13763642 0.91383249 28567431
-0.064092323 0.13752532 0.91428822 28567431
-0.06208083 0.13741419 0.91474134 28567431
-0.060072228 0.13730288 0.91519171 28567431
-0.058066607 0.13719156 0.91563934 28567431
-0.056705207 0.13724276 0.91684192 28567431
-0.054704145 0.13713115 0.91728574 28567431
-0.052705631 0.13701949 0.91772693 28567431
-0.050073862 0.13674501 0.91740435 28567431
-0.048718363 0.13679594 0.91860121 28567431
-0.046729177 0.13668391 0.9190349 28567431
-0.044742823 0.13657182 0.91946548 28567431
-0.042128786 0.13629651 0.91912729 28567431
-0.040779084 0.13634729 0.92031902 28567431
-0.038801625 0.13623494 0.92074198 28567431
-0.037453607 0.13628557 0.92193252 28567431
-0.036105186 0.13633627 0.92312318 28567431
-0.034757078 0.13638693 0.9243136 28567431
-0.033408612 0.13643765 0.92550403 28567431
-0.03206028 0.13648838 0.92669481 28567431
-0.030712113 0.13653913 0.92788535 28567431
-0.029364064 0.13658974 0.9290759 28567431
-0.028015688 0.13664046 0.93026656 28567431
-0.026667401 0.13669121 0.93145698 28567431
-0.025319085 0.13674182 0.93264765 28567431
-0.023359612 0.13662875 0.93305486 28567431
-0.022012919 0.13667941 0.9342441 28567431
-0.020057723 0.13656607 0.93464714 28567431
-0.018712536 0.13661674 0.93583506 28567431
-0.017367318 0.13666725 0.93702298 28567431
-0.016021758 0.13671786 0.93821102 28567431
-0.014676511 0.13676849 0.93939883 28567431
-0.013932124 0.13698325 0.94137985 28567431
-0.012585446 0.13703382 0.94256896 28567431
-0.011238709 0.13708448 0.94375807 28567431
-0.0098917633 0.13713527 0.9449473 28567431
-0.0085449368 0.13718587 0.94613665 28567431
-0.0071983486 0.13723648 0.94732589 28567431
-0.004335776 0.13771755 0.95250016 28567431
-0.0035737306 0.13793311 0.95449632 28567431
-0.0028083175 0.1381487 0.95649558 28567431
-0.0020399243 0.13836432 0.95849711 28567431
-0.00068594515 0.13841522 0.95969301 28567431
-0.00049482286 0.138796 0.96250838 28567431
0.00028245151 0.13901201 0.96451777 28567431
0.0024225861 0.13927928 0.96773106 28567431
-0.076775983 0.14056444 0.91484612 28567431
-0.074090958 0.14028797 0.91457087 28567431
-0.072062865 0.14017546 0.91503841 28567431
-0.069388255 0.13989854 0.91475421 28567431
-0.066719398 0.13962123 0.91446477 28567431
-0.064703405 0.13950837 0.91492194 28567431
-0.062690407 0.13939533 0.91537648 28567431
-0.061324254 0.13944665 0.91658276 28567431
-0.059315741 0.13933343 0.91703314 28567431
-0.057310179 0.13922009 0.91748112 28567431
-0.055307537 0.13910669 0.91792637 28567431
-0.053946093 0.13915786 0.91912895 28567431
-0.051311463 0.13887936 0.91880912 28567431
-0.049317613 0.13876554 0.91924649 28567431
-0.047327086 0.13865161 0.91968125 28567431
-0.045339212 0.13853762 0.9201135 28567431
-0.043354541 0.13842347 0.92054302 28567431
-0.041372627 0.13830924 0.9209699 28567431
-0.040021449 0.13835999 0.92216319 28567431
-0.03804414 0.13824564 0.92258602 28567431
-0.036694288 0.1382964 0.92377824 28567431
-0.035344616 0.13834715 0.92496997 28567431
-0.033994988 0.13839796 0.92616159 28567431
-0.032644957 0.13844866 0.9273538 28567431
-0.030676499 0.13833395 0.92776865 28567431
-0.029328391 0.13838455 0.92895931 28567431
-0.027980313 0.1384353 0.93014985 28567431
-0.026631817 0.13848612 0.9313404 28567431
-0.02528362 0.13853675 0.93253106 28567431
-0.023935378 0.13858736 0.9337216 28567431
-0.021977365 0.13847226 0.93412775 28567431
-0.020630598 0.13852292 0.93531674 28567431
-0.019283727 0.13857365 0.93650609 28567431
-0.017936811 0.13862416 0.93769521 28567431
-0.016590342 0.13867486 0.93888456 28567431
-0.015243664 0.13872543 0.94007379 28567431
-0.013896644 0.13877609 0.94126314 28567431
-0.013149187 0.13899302 0.94324607 28567431
-0.01180084 0.13904378 0.94443673 28567431
-0.010452554 0.13909444 0.94562739 28567431
-0.0091044158 0.13914508 0.94681793 28567431
-0.0077562183 0.13919571 0.94800872 28567431
-0.0069996268 0.139413 0.94999975 28567431
-0.0062405318 0.13963038 0.95199329 28567431
-0.0054781586 0.13984776 0.95398968 28567431
-0.0041256398 0.13989854 0.95518404 28567431
-0.003358677 0.14011624 0.95718426 28567431
-0.0025889128 0.14033389 0.95918697 28567431
-0.0018161982 0.14055175 0.96119255 28567431
-0.0010402948 0.14076969 0.96320051 28567431
-0.12593459 0.14818069 0.92420322 28567431
-0.11765598 0.14696613 0.92092997 28567431
-0.11420818 0.14652348 0.92000598 28567431
-0.10050568 0.14474985 0.91623038 28567431
-0.097102404 0.14430559 0.91526693 28567431
-0.094372615 0.1440267 0.91503149 28567431
-0.091648951 0.14374772 0.91479069 28567431
-0.088930979 0.14346841 0.91454488 28567431
-0.086219102 0.14318892 0.91429383 28567431
-0.084171891 0.1430752 0.91477853 28567431
-0.08212781 0.14296126 0.91526073 28567431
-0.080086678 0.14284724 0.91574007 28567431
-0.077393934 0.14256707 0.91547185 28567431
-0.074707478 0.1422866 0.9151985 28567431
-0.072678059 0.14217213 0.91566747 28567431
-0.07000187 0.1418913 0.91538471 28567431
-0.067331731 0.14161021 0.91509682 28567431
-0.065314427 0.14149544 0.9155553 28567431
-0.063299909 0.14138031 0.91601127 28567431
-0.061932459 0.14143178 0.91721886 28567431
-0.059922218 0.14131665 0.91767091 28567431
-0.058556274 0.14136797 0.9188773 28567431
-0.056550726 0.14125264 0.91932505 28567431
-0.05454801 0.14113727 0.91977054 28567431
-0.051912054 0.14085487 0.91945249 28567431
-0.050551996 0.14090601 0.92065364 28567431
-0.047924906 0.14062324 0.92032772 28567431
-0.046567723 0.14067435 0.92152601 28567431
-0.044579878 0.14055836 0.92195839 28567431
-0.042595342 0.14044222 0.92238814 28567431
-0.040613413 0.14032599 0.92281514 28567431
-0.03926073 0.1403769 0.9240095 28567431
-0.037283421 0.1402604 0.92443269 28567431
-0.035932153 0.1403113 0.92562574 28567431
-0.034580812 0.1403622 0.92681903 28567431
-0.033229858 0.14041287 0.92801231 28567431
-0.031878576 0.14046374 0.92920548 28567431
-0.030527383 0.14051452 0.93039864 28567431
-0.029175967 0.14056537 0.93159181 28567431
-0.027824894 0.14061621 0.93278497 28567431
-0.025860921 0.1404992 0.93319637 28567431
-0.024511069 0.14055002 0.93438834 28567431
-0.022551686 0.14043304 0.93479556 28567431
-0.021203443 0.14048365 0.93598622 28567431
-0.019855008 0.14053434 0.93717676 28567431
-0.018506795 0.14058504 0.93836707 28567431
-0.017158613 0.14063573 0.93955797 28567431
-0.016412541 0.14085451 0.94153959 28567431
-0.015062883 0.14090526 0.94273132 28567431
-0.013713032 0.1409561 0.94392341 28567431
-0.012363389 0.1410068 0.94511515 28567431
-0.011013433 0.14105758 0.94630724 28567431
-0.010258332 0.14127672 0.94829661 28567431
-0.0089073032 0.1413275 0.94948989 28567431
-0.0075562447 0.14137828 0.95068306 28567431
-0.0067953318 0.14159766 0.95267802 28567431
-0.0054424256 0.14164859 0.9538725 28567431
-0.0046772808 0.14186803 0.95587105 28567431
-0.0039088577 0.1420877 0.95787245 28567431
-0.0037220269 0.14247614 0.96068341 28567431
-0.0023633689 0.14252731 0.96188301 28567431
-0.11896865 0.14920044 0.92225999 28567431
-0.11207587 0.14830339 0.92040974 28567431
-0.10864291 0.1478543 0.91947275 28567431
-0.10454984 0.14723727 0.91779619 28567431
-0.094335794 0.1458869 0.91491073 28567431
-0.091611996 0.14560392 0.91467029 28567431
-0.089556098 0.14548847 0.9151631 28567431
-0.086842671 0.14520505 0.91491348 28567431
-0.084135368 0.14492148 0.91465849 28567431
-0.082091525 0.14480561 0.91514081 28567431
-0.080050096 0.14468962 0.91562051 28567431
-0.077357709 0.14440551 0.91535252 28567431
-0.074671164 0.14412102 0.91507918 28567431
-0.072641894 0.14400461 0.9155485 28567431
-0.069965661 0.14371982 0.91526598 28567431
-0.067943886 0.14360312 0.91572851 28567431
-0.065925136 0.14348626 0.91618866 28567431
-0.063909277 0.14336941 0.91664606 28567431
-0.062540099 0.14342088 0.91785485 28567431
-0.060528517 0.14330384 0.9183082 28567431
-0.058520123 0.14318654 0.91875905 28567431
-0.056514785 0.14306918 0.91920727 28567431
-0.055150032 0.14312068 0.92041212 28567431
-0.053149074 0.14300314 0.92085642 28567431
-0.051151037 0.14288551 0.92129809 28567431
-0.048522413 0.14259899 0.92097348 28567431
-0.047163799 0.14264998 0.92217332 28567431
-0.044544145 0.14236313 0.92184108 28567431
-0.043188483 0.14241406 0.92303818 28567431
-0.041205361 0.14229593 0.92346674 28567431
-0.039851233 0.1423468 0.92466241 28567431
-0.037872404 0.14222857 0.92508703 28567431
-0.03714256 0.14244866 0.92705411 28567431
-0.035166979 0.14233032 0.92747611 28567431
-0.033814058 0.14238119 0.9286707 28567431
-0.03246142 0.14243197 0.92986506 28567431
-0.031108782 0.14248282 0.93105966 28567431
-0.029140264 0.14236417 0.93147475 28567431
-0.027789429 0.1424149 0.93266803 28567431
-0.026438102 0.14246571 0.93386132 28567431
-0.02508679 0.14251652 0.93505472 28567431
-0.023125783 0.14239764 0.93546325 28567431
-0.021775812 0.14244837 0.93665522 28567431
-0.02103287 0.14266908 0.93863398 28567431
-0.019681767 0.14271981 0.93982738 28567431
-0.018330574 0.14277059 0.94102043 28567431
-0.017581627 0.14299148 0.94300479 28567431
-0.016228661 0.14304245 0.94419926 28567431
-0.014876142 0.14309326 0.94539374 28567431
-0.012170658 0.14319494 0.94778293 28567431
-0.0094649643 0.14329669 0.95017201 28567431
-0.1133825 0.15053403 0.921745 28567431
-0.10927635 0.14990962 0.92008084 28567431
-0.10518174 0.14928484 0.91840583 28567431
-0.10243449 0.1489988 0.91818672 28567431
-0.098360658 0.14837319 0.91649348 28567431
-0.095628187 0.14808649 0.91626126 28567431
-0.092901751 0.14779964 0.91602355 28567431
-0.089519367 0.14734268 0.91504258 28567431
-0.086806133 0.14705542 0.91479295 28567431
-0.084757566 0.1469377 0.91527945 28567431
-0.082054779 0.1466499 0.915021 28567431
-0.079357922 0.14636195 0.91475695 28567431
-0.077321276 0.14624387 0.91523296 28567431
-0.074634805 0.14595553 0.91495997 28567431
-0.072605833 0.1458371 0.91542917 28567431
-0.069929913 0.14554828 0.91514701 28567431
-0.067907751 0.14542973 0.9156099 28567431
-0.065889165 0.14531085 0.91606992 28567431
-0.063873246 0.14519191 0.91652745 28567431
-0.062503994 0.14524344 0.91773635 28567431
-0.060492545 0.14512444 0.91818982 28567431
-0.059125021 0.14517587 0.91939765 28567431
-0.057118133 0.14505661 0.91984719 28567431
-0.055114046 0.14493722 0.92029411 28567431
-0.053113326 0.14481768 0.92073864 28567431
-0.051115289 0.1446982 0.92118019 28567431
-0.049120143 0.14457849 0.92161936 28567431
-0.047127917 0.14445871 0.9220559 28567431
-0.045769334 0.14450982 0.9232555 28567431
-0.043781698 0.14438984 0.92368823 28567431
-0.042424634 0.14444083 0.92488676 28567431
-0.040441215 0.14432082 0.92531508 28567431
-0.039085895 0.14437178 0.9265123 28567431
-0.037729979 0.14442277 0.9277094 28567431
-0.036374152 0.14447373 0.92890662 28567431
-0.034398586 0.14435327 0.92932874 28567431
-0.033044413 0.14440417 0.93052453 28567431
-0.031690165 0.14445519 0.93172032 28567431
-0.030336037 0.14450607 0.9329161 28567431
-0.028367564 0.1443854 0.93333167 28567431
-0.02701503 0.14443624 0.93452626 28567431
-0.025662258 0.14448711 0.93572086 28567431
-0.024309352 0.14453802 0.93691534 28567431
-0.022956833 0.14458886 0.93810982 28567431
-0.021604002 0.1446397 0.93930429 28567431
-0.020251378 0.1446906 0.94049865 28567431
-0.018898681 0.14474148 0.94169337 28567431
-0.01814799 0.14496437 0.94367868 28567431
-0.016193062 0.14484319 0.9440822 28567431
-0.015439466 0.14506629 0.94607037 28567431
-0.013487563 0.14494488 0.94647139 28567431
-0.012731269 0.14516804 0.94846183 28567431
-0.010782227 0.14504668 0.94886047 28567431
-0.0094294697 0.14509746 0.95005471 28567431
-0.0080766231 0.1451484 0.95124942 28567431
-0.0073143393 0.14537179 0.95324534 28567431
-0.12438212 0.15398148 0.92510027 28567431
-0.11334512 0.15242982 0.92162198 28567431
-0.11057982 0.15214041 0.92141885 28567431
-0.10648273 0.15150779 0.91974705 28567431
-0.10373241 0.15121785 0.91953069 28567431
-0.099655911 0.15058449 0.91784066 28567431
-0.096256062 0.15012226 0.91687578 28567431
-0.093527988 0.14983162 0.91663963 28567431
-0.090806007 0.14954051 0.91639835 28567431
-0.087429628 0.1490775 0.9154126 28567431
-0.084721178 0.14878595 0.91515929 28567431
-0.082675532 0.14866617 0.91564316 28567431
-0.079977244 0.14837438 0.91538113 28567431
-0.077285081 0.1480822 0.91511363 28567431
-0.074598506 0.14778996 0.91484076 28567431
-0.072569519 0.14766955 0.9153102 28567431
-0.06989342 0.14737675 0.91502827 28567431
-0.06787166 0.1472562 0.91549104 28567431
-0.065852955 0.14713538 0.91595143 28567431
-0.063836947 0.14701453 0.91640896 28567431
-0.062468156 0.14706606 0.91761786 28567431
-0.059814572 0.14677241 0.91731626 28567431
-0.058448076 0.14682382 0.91852266 28567431
-0.056442842 0.14670256 0.918971 28567431
-0.055078372 0.14675382 0.92017609 28567431
-0.053077191 0.14663246 0.92062062 28567431
-0.051079288 0.14651093 0.92106241 28567431
-0.049084306 0.14638928 0.92150182 28567431
-0.047092155 0.1462675 0.92193812 28567431
-0.045103192 0.14614552 0.92237228 28567431
-0.043745965 0.14619657 0.92357069 28567431
-0.042388752 0.14624766 0.92476922 28567431
-0.040405661 0.14612553 0.92519814 28567431
-0.039050087 0.14617652 0.926395 28567431
-0.037694335 0.14622751 0.92759198 28567431
-0.036338404 0.1462785 0.9287892 28567431
-0.034982696 0.14632949 0.92998642 28567431
-0.033008486 0.14620706 0.93040723 28567431
-0.032271534 0.14643139 0.93238074 28567431
-0.030300319 0.14630887 0.93279904 28567431
-0.028332084 0.14618614 0.93321472 28567431
-0.026979476 0.14623699 0.93440908 28567431
-0.025626794 0.14628789 0.93560356 28567431
-0.024273977 0.14633879 0.93679804 28567431
-0.022921026 0.14638966 0.93799275 28567431
-0.021568507 0.14644051 0.93918711 28567431
-0.020215586 0.14649135 0.94038171 28567431
-0.018862933 0.14654231 0.9415763 28567431
-0.017510191 0.14659303 0.9427709 28567431
-0.016157493 0.14664397 0.94396526 28567431
-0.014804855 0.14669481 0.94515985 28567431
-0.014049605 0.14691994 0.94714898 28567431
-0.012695476 0.14697081 0.94834489 28567431
-0.011341408 0.14702171 0.94954056 28567431
-0.0099870414 0.14707273 0.95073622 28567431
-0.0086326748 0.14712369 0.95193225 28567431
-0.0072787553 0.14717448 0.95312804 28567431
-0.0059244484 0.14722544 0.95432395 28567431
-0.0028389841 0.14812812 0.96233851 28567431
-0.10436273 0.15327141 0.9201414 28567431
-0.1002851 0.15263009 0.91845316 28567431
-0.097547948 0.15233564 0.91822535 28567431
-0.088713229 0.15127736 0.91677088 28567431
-0.08600156 0.15098205 0.91652066 28567431
-0.083295986 0.15068653 0.91626543 28567431
-0.080596521 0.15039074 0.9160046 28567431
-0.078556895 0.15026876 0.91648334 28567431
-0.075867712 0.1499725 0.91621357 28567431
-0.07318446 0.14967617 0.91593832 28567431
-0.071156725 0.14955378 0.91640657 28567431
-0.069132119 0.1494312 0.91687208 28567431
-0.066463634 0.14913422 0.91658419 28567431
-0.065091521 0.1491859 0.9177956 28567431
-0.062432036 0.14888859 0.91749948 28567431
-0.060420588 0.1487655 0.91795343 28567431
-0.058412284 0.14864245 0.91840452 28567431
-0.05640687 0.14851916 0.9188531 28567431
-0.054404557 0.14839578 0.91929883 28567431
-0.052404985 0.14827237 0.91974241 28567431
-0.050408721 0.14814878 0.920183 28567431
-0.048415124 0.1480251 0.92062086 28567431
-0.047056347 0.14807609 0.92182082 28567431
-0.044436961 0.14777735 0.92148918 28567431
-0.043081462 0.14782831 0.9226864 28567431
-0.04172571 0.14787921 0.92388362 28567431
-0.040369943 0.14793026 0.92508048 28567431
-0.039014369 0.14798123 0.92627782 28567431
-0.037658572 0.14803228 0.92747492 28567431
-0.03630276 0.14808321 0.92867213 28567431
-0.034947395 0.14813414 0.92986912 28567431
-0.033591419 0.14818519 0.93106645 28567431
-0.032235816 0.14823619 0.93226343 28567431
-0.030880168 0.14828703 0.93346065 28567431
-0.028910339 0.1481626 0.93387765 28567431
-0.027556047 0.14821351 0.93507355 28567431
-0.026202098 0.14826429 0.93626922 28567431
-0.024238318 0.14813954 0.93668121 28567431
-0.02288565 0.14819044 0.93787569 28567431
-0.021532893 0.14824131 0.93907028 28567431
-0.020179912 0.14829215 0.94026476 28567431
-0.018827453 0.14834309 0.94145924 28567431
-0.017474547 0.14839393 0.94265383 28567431
-0.016121939 0.14844474 0.94384831 28567431
-0.015368238 0.14867178 0.94583601 28567431
-0.01401408 0.14872259 0.94703192 28567431
-0.013255879 0.14894989 0.94902354 28567431
-0.011900231 0.14900088 0.95022041 28567431
-0.0085972399 0.14892641 0.95181507 28567431
-0.0072428435 0.14897728 0.95301098 28567431
-0.0028030425 0.14993885 0.96222085 28567431
-0.086623564 0.15301019 0.91714078 28567431
-0.079174548 0.15228704 0.917108 28567431
-0.07583119 0.151811 0.91609401 28567431
-0.074450299 0.15186289 0.91731364 28567431
-0.071769878 0.15156245 0.91703612 28567431
-0.069743738 0.15143797 0.9175033 28567431
-0.067720667 0.15131345 0.9179675 28567431
-0.065700486 0.15118876 0.91842932 28567431
-0.063039482 0.15088761 0.91813475 28567431
-0.061026946 0.15076265 0.91858989 28567431
-0.059016958 0.15063754 0.91904265 28567431
-0.057010189 0.15051237 0.91949266 28567431
-0.055006459 0.15038711 0.91993994 28567431
-0.053005412 0.1502617 0.92038471 28567431
-0.051007524 0.1501362 0.92082685 28567431
-0.049012676 0.15001068 0.92126638 28567431
-0.047020808 0.14988485 0.92170328 28567431
-0.044401392 0.14958215 0.92137176 28567431
-0.043045625 0.14963302 0.92256922 28567431
-0.041690052 0.14968401 0.92376631 28567431
-0.04033421 0.149735 0.92496341 28567431
-0.038978562 0.14978597 0.9261604 28567431
-0.038245797 0.15001419 0.92812961 28567431
-0.036267087 0.14988804 0.92855483 28567431
-0.034911469 0.14993891 0.92975205 28567431
-0.032937348 0.14981261 0.93017298 28567431
-0.031583294 0.14986342 0.93136901 28567431
-0.030229002 0.14991438 0.93256468 28567431
-0.028874665 0.14996532 0.93376058 28567431
-0.026907951 0.14983863 0.93417507 28567431
-0.026166156 0.15006709 0.9361524 28567431
-0.0242026 0.14994031 0.93656427 28567431
-0.02345787 0.15016899 0.93854398 28567431
-0.022103727 0.15021998 0.93973976 28567431
-0.02074939 0.15027088 0.94093555 28567431
-0.019395366 0.15032172 0.94213146 28567431
-0.01804097 0.15037271 0.94332725 28567431
-0.016686991 0.15042362 0.94452304 28567431
-0.015332669 0.15047446 0.94571882 28567431
-0.014576271 0.15070352 0.9477089 28567431
-0.011864558 0.15080556 0.95010334 28567431
-0.011102036 0.15103483 0.95209867 28567431
-0.0097448379 0.15108591 0.9532972 28567431
-0.0083877891 0.15113693 0.95449561 28567431
-0.0070302933 0.15118799 0.95569414 28567431
-0.0056733042 0.15123901 0.95689255 28567431
-0.0049017519 0.1514686 0.9588961 28567431
-0.0047118515 0.15187705 0.96170825 28567431
-0.0031510144 0.15233698 0.96573061 28567431
-0.098803252 0.15643105 0.91945261 28567431
-0.096069485 0.15612864 0.91922277 28567431
-0.092680156 0.15564823 0.91824967 28567431
-0.089959711 0.15534538 0.91800791 28567431
-0.08724536 0.15504223 0.91776079 28567431
-0.084537134 0.15473887 0.91750854 28567431
-0.081834719 0.15443528 0.91725093 28567431
-0.079792306 0.15430939 0.91773278 28567431
-0.077099994 0.15400547 0.91746598 28567431
-0.075065032 0.1538794 0.91794091 28567431
-0.07303293 0.15375319 0.91841346 28567431
-0.070355892 0.15344861 0.91813356 28567431
-0.068331018 0.15332216 0.91859955 28567431
-0.066309586 0.15319556 0.91906291 28567431
-0.063647076 0.15289056 0.91876978 28567431
-0.061632797 0.15276355 0.91922659 28567431
-0.059621617 0.15263665 0.91968054 28567431
-0.057613403 0.15250957 0.9201321 28567431
-0.055608228 0.15238231 0.9205808 28567431
-0.053605661 0.15225503 0.92102712 28567431
-0.051606432 0.15212759 0.92147046 28567431
-0.049610168 0.15200004 0.92191166 28567431
-0.04761669 0.15187249 0.92234963 28567431
-0.045626283 0.15174463 0.92278546 28567431
-0.04426758 0.15179577 0.92398518 28567431
-0.042908937 0.15184677 0.92518491 28567431
-0.041550249 0.15189791 0.92638475 28567431
-0.040191531 0.15194902 0.92758447 28567431
-0.038832739 0.15200007 0.92878431 28567431
-0.036852986 0.15187186 0.92921072 28567431
-0.035495803 0.15192297 0.93040925 28567431
-0.033519909 0.15179473 0.93083161 28567431
-0.03216435 0.15184569 0.93202883 28567431
-0.030808762 0.1518966 0.93322617 28567431
-0.029453054 0.15194765 0.93442315 28567431
-0.028097391 0.15199858 0.93562025 28567431
-0.026741594 0.15204954 0.93681759 28567431
-0.024776429 0.1519208 0.93723089 28567431
-0.024030179 0.1521515 0.93921191 28567431
-0.022674546 0.15220252 0.94040889 28567431
-0.021319002 0.15225339 0.94160599 28567431
-0.019963071 0.15230447 0.94280308 28567431
-0.018607378 0.1523554 0.94400042 28567431
-0.017251819 0.15240642 0.94519752 28567431
-0.016495079 0.15263733 0.94718772 28567431
-0.015137821 0.15268844 0.94838613 28567431
-0.013780639 0.1527395 0.94958442 28567431
-0.012423351 0.15279061 0.95078307 28567431
-0.011066452 0.15284157 0.95198125 28567431
-0.0097089559 0.15289259 0.9531799 28567431
-0.0089423507 0.15312397 0.95517915 28567431
-0.0081722587 0.15335566 0.95718104 28567431
-0.098765999 0.15830508 0.91933089 28567431
-0.095369577 0.15781891 0.91836482 28567431
-0.092643172 0.1575124 0.91812855 28567431
-0.08992289 0.15720552 0.91788703 28567431
-0.087208793 0.15689844 0.91764015 28567431
-0.084500238 0.15659106 0.91738826 28567431
-0.081798092 0.15628362 0.91713101 28567431
-0.079101607 0.15597567 0.91686851 28567431
-0.077063665 0.15584779 0.9173463 28567431
-0.075028718 0.15571979 0.91782135 28567431
-0.073646218 0.15577173 0.91904217 28567431
-0.0716158 0.1556434 0.91951364 28567431
-0.06958814 0.15551504 0.91998225 28567431
-0.067563444 0.15538672 0.92044824 28567431
-0.064254805 0.15489739 0.91940445 28567431
-0.062238902 0.15476862 0.91986269 28567431
-0.060226321 0.15463969 0.92031807 28567431
-0.058216572 0.15451065 0.92077106 28567431
-0.056847662 0.15456218 0.92198008 28567431
-0.054842204 0.15443298 0.92242903 28567431
-0.05283989 0.1543037 0.92287534 28567431
-0.050840542 0.1541743 0.92331904 28567431
-0.048844233 0.15404484 0.92376012 28567431
-0.04685089 0.15391514 0.92419833 28567431
-0.044860676 0.15378535 0.92463428 28567431
-0.043500245 0.15383661 0.92583543 28567431
-0.042140305 0.15388769 0.92703646 28567431
-0.040780187 0.15393889 0.9282375 28567431
-0.039420053 0.15398994 0.92943877 28567431
-0.037438348 0.15385988 0.92986661 28567431
-0.035459593 0.15372965 0.93029195 28567431
-0.034102574 0.15378076 0.93149048 28567431
-0.032745436 0.15383178 0.93268877 28567431
-0.03077291 0.15370139 0.93310875 28567431
-0.029417425 0.1537523 0.93430597 28567431
-0.028061599 0.15380332 0.93550307 28567431
-0.026705936 0.15385431 0.93670028 28567431
-0.024740666 0.15372366 0.93711394 28567431
-0.023994461 0.15395623 0.9390946 28567431
-0.022638857 0.15400729 0.94029158 28567431
-0.021888062 0.1542401 0.94227642 28567431
-0.020530924 0.15429109 0.94347471 28567431
-0.019173965 0.154342 0.94467324 28567431
-0.018417105 0.15457514 0.9466632 28567431
-0.017058238 0.15462619 0.94786304 28567431
-0.015699774 0.15467742 0.94906265 28567431
-0.014341131 0.15472838 0.95026249 28567431
-0.01357688 0.15496171 0.95225912 28567431
-0.10964055 0.16183436 0.92279023 28567431
-0.095995322 0.15986872 0.91897947 28567431
-0.093267962 0.15955821 0.91874498 28567431
-0.089886129 0.15906566 0.91776615 28567431
-0.087172002 0.15875456 0.91751975 28567431
-0.084463954 0.15844336 0.91726774 28567431
-0.081105962 0.15794998 0.91626805 28567431
-0.078411251 0.1576381 0.91600448 28567431
-0.076374859 0.15750816 0.91648108 28567431
-0.074992195 0.15756017 0.91770178 28567431
-0.072960272 0.15743002 0.91817456 28567431
-0.071579516 0.15748188 0.91939408 28567431
-0.070198342 0.15753391 0.92061347 28567431
-0.068172231 0.15740344 0.92108101 28567431
-0.065505669 0.15709066 0.92079252 28567431
-0.063487098 0.15695992 0.9212535 28567431
-0.061471477 0.15682924 0.92171139 28567431
-0.059458777 0.15669835 0.92216724 28567431
-0.058086678 0.15674996 0.92337877 28567431
-0.056078479 0.15661883 0.92383045 28567431
-0.053438708 0.15630496 0.923518 28567431
-0.052071154 0.15635636 0.92472595 28567431
-0.050071746 0.15622503 0.92516989 28567431
-0.048075423 0.15609354 0.9256112 28567431
-0.046082214 0.15596196 0.92604953 28567431
-0.044719204 0.15601316 0.92725295 28567431
-0.042730317 0.1558814 0.92768782 28567431
-0.041368544 0.15593258 0.92889029 28567431
-0.039384127 0.15580067 0.92932099 28567431
-0.038023829 0.15585181 0.93052214 28567431
-0.036043927 0.1557197 0.93094903 28567431
-0.035303652 0.15595412 0.93292433 28567431
-0.03332682 0.15582183 0.93334836 28567431
-0.031968072 0.15587294 0.93454808 28567431
-0.030609503 0.15592402 0.93574792 28567431
-0.028638065 0.15579158 0.9361667 28567431
-0.027281061 0.15584263 0.93736511 28567431
-0.025923938 0.15589368 0.93856364 28567431
-0.02456671 0.15594471 0.93976206 28567431
-0.023209438 0.15599576 0.94096059 28567431
-0.022457287 0.15623057 0.94294649 28567431
-0.021098599 0.15628174 0.94414622 28567431
-0.020341977 0.15651667 0.94613594 28567431
-0.018981725 0.15656784 0.94733721 28567431
-0.015497282 0.15690544 0.95173568 28567431
-0.10751325 0.16359818 0.92319101 28567431
-0.10342868 0.16291758 0.92151183 28567431
-0.10002066 0.16242018 0.92055708 28567431
-0.0966212 0.16192243 0.91959435 28567431
-0.093892276 0.16160798 0.91936117 28567431
-0.084427059 0.16029561 0.91714746 28567431
-0.081069484 0.1597963 0.91614813 28567431
-0.078374594 0.15948051 0.91588491 28567431
-0.076338217 0.15934852 0.91636151 28567431
-0.074304923 0.15921637 0.91683573 28567431
-0.072923943 0.15926838 0.91805512 28567431
-0.070895076 0.15913612 0.91852528 28567431
-0.069515407 0.159188 0.9197436 28567431
-0.06749098 0.15905562 0.92020959 28567431
-0.065469339 0.15892306 0.92067331 28567431
-0.063450873 0.15879044 0.92113441 28567431
-0.061435163 0.15865761 0.92159277 28567431
-0.059422418 0.15852484 0.92204851 28567431
-0.058050618 0.15857643 0.92326003 28567431
-0.056042567 0.15844339 0.92371172 28567431
-0.054037333 0.15831023 0.92416114 28567431
-0.052035227 0.15817696 0.92460769 28567431
-0.050667197 0.15822849 0.92581517 28567431
-0.048669577 0.15809506 0.92625791 28567431
-0.046674788 0.15796146 0.92669791 28567431
-0.045310363 0.15801281 0.92790288 28567431
-0.043319866 0.15787911 0.92833894 28567431
-0.041956887 0.15793031 0.92954272 28567431
-0.039970919 0.15779647 0.92997485 28567431
-0.03860946 0.15784767 0.9311772 28567431
-0.036628053 0.15771356 0.93160552 28567431
-0.03526783 0.15776479 0.93280667 28567431
-0.033907562 0.15781587 0.93400782 28567431
-0.031932294 0.15768161 0.93443054 28567431
-0.030573651 0.15773273 0.93563038 28567431
-0.029214934 0.15778378 0.93682998 28567431
-0.02785632 0.15783492 0.93802983 28567431
-0.026497573 0.15788597 0.93922955 28567431
-0.0251389 0.15793714 0.94042939 28567431
-0.023780212 0.15798819 0.94162911 28567431
-0.023026481 0.15822512 0.94361633 28567431
-0.021666065 0.15827626 0.94481736 28567431
-0.020908013 0.15851328 0.94680828 28567431
-0.020146877 0.15875047 0.94880217 28567431
-0.018783584 0.15880176 0.95000571 28567431
-0.017420679 0.15885299 0.95120937 28567431
-0.016057387 0.15890428 0.95241314 28567431
-0.014694288 0.15895545 0.9536168 28567431
-0.012738273 0.15882045 0.95402271 28567431
-0.011967883 0.159058 0.95602411 28567431
-0.010604665 0.15910921 0.95722789 28567431
-0.0098303407 0.15934685 0.95923322 28567431
-0.0090525597 0.15958464 0.96124154 28567431
-0.0082720369 0.15982255 0.96325237 28567431
-0.085047305 0.16233361 0.91776842 28567431
-0.081688181 0.16182837 0.91677076 28567431
-0.078992084 0.16150874 0.91650897 28567431
-0.076954335 0.16137487 0.91698712 28567431
-0.074919373 0.16124085 0.91746289 28567431
-0.072887421 0.1611068 0.91793567 28567431
-0.070858493 0.16097254 0.91840619 28567431
-0.069479138 0.16102436 0.91962427 28567431
-0.06745474 0.16088998 0.92009062 28567431
-0.065433249 0.16075549 0.92055422 28567431
-0.063414812 0.16062087 0.92101544 28567431
-0.061399102 0.16048616 0.92147392 28567431
-0.059386462 0.16035137 0.92192978 28567431
-0.057377085 0.16021636 0.92238301 28567431
-0.056006506 0.16026789 0.92359346 28567431
-0.054001167 0.16013286 0.92404252 28567431
-0.051998958 0.15999764 0.92448944 28567431
-0.050631359 0.16004905 0.92569691 28567431
-0.048633799 0.15991357 0.92613977 28567431
-0.046638936 0.15977809 0.92657989 28567431
-0.045274317 0.15982944 0.92778498 28567431
-0.043284163 0.15969375 0.92822093 28567431
-0.041921049 0.15974501 0.92942482 28567431
-0.039935172 0.15960914 0.92985696 28567431
-0.038573489 0.15966037 0.93105942 28567431
-0.03721182 0.15971163 0.932262 28567431
-0.035850227 0.15976277 0.93346423 28567431
-0.034488693 0.15981394 0.93466669 28567431
-0.032511607 0.15967783 0.93509108 28567431
-0.031151533 0.15972894 0.93629211 28567431
-0.029179141 0.15959254 0.93671256 28567431
-0.027820483 0.15964368 0.93791229 28567431
-0.02646184 0.15969482 0.93911189 28567431
-0.025103167 0.15974581 0.94031185 28567431
-0.024350628 0.15998465 0.94229752 28567431
-0.021630526 0.1600869 0.9446997 28567431
-0.02087222 0.16032594 0.94669062 28567431
-0.020110771 0.16056505 0.94868416 28567431
-0.018747792 0.16061634 0.94988769 28567431
-0.017384365 0.16066766 0.95109147 28567431
-0.016021445 0.16071889 0.95229489 28567431
-0.014658228 0.16077009 0.9534989 28567431
-0.012702182 0.16063318 0.95390493 28567431
-0.011340484 0.16068429 0.95510727 28567431
-0.010569051 0.16092384 0.95710999 28567431
-0.0097943097 0.16116351 0.95911533 28567431
-0.0090166777 0.16140333 0.96112341 28567431
-0.0082362443 0.16164318 0.96313387 28567431
-0.086324394 0.16456333 0.91913038 28567431
-0.078222573 0.16359314 0.91835743 28567431
-0.076184973 0.16345724 0.91883594 28567431
-0.07415016 0.16332123 0.9193117 28567431
-0.072118014 0.16318518 0.91978461 28567431
-0.070735574 0.16323718 0.92100555 28567431
-0.0680632 0.16291267 0.9207229 28567431
-0.066040382 0.16277623 0.92118829 28567431
-0.064662322 0.16282806 0.92240506 28567431
-0.06200321 0.16250312 0.92211062 28567431
-0.059350446 0.16217786 0.92181104 28567431
-0.057978392 0.16222951 0.92302281 28567431
-0.055970207 0.16209245 0.92347473 28567431
-0.053330675 0.1617668 0.92316335 28567431
-0.051963001 0.16181815 0.92437106 28567431
-0.049963981 0.16168073 0.92481512 28567431
-0.047967896 0.16154334 0.92525691 28567431
-0.046603188 0.16159469 0.92646176 28567431
-0.04461132 0.16145709 0.92689961 28567431
-0.043248326 0.16150841 0.92810315 28567431
-0.041260943 0.16137058 0.92853671 28567431
-0.03989929 0.16142187 0.92973906 28567431
-0.038537636 0.16147301 0.93094176 28567431
-0.037176013 0.16152418 0.93214399 28567431
-0.035814315 0.16157544 0.93334645 28567431
-0.03445287 0.16162661 0.9345488 28567431
-0.032476097 0.16148838 0.93497342 28567431
-0.031115696 0.16153958 0.93617457 28567431
-0.029143244 0.1614013 0.93659502 28567431
-0.027784646 0.16145235 0.93779474 28567431
-0.026425928 0.1615034 0.93899447 28567431
-0.02506724 0.16155446 0.94019431 28567431
-0.021594569 0.1618976 0.94458193 28567431
-0.020234317 0.16194874 0.9457832 28567431
-0.019474626 0.16218984 0.94777507 28567431
-0.018113092 0.16224098 0.94897753 28567431
-0.017348751 0.16248229 0.95097357 28567431
-0.015985623 0.16253355 0.95217711 28567431
-0.014622554 0.16258472 0.95338088 28567431
-0.090316817 0.16712797 0.92073566 28567431
-0.087601125 0.16680112 0.9204914 28567431
-0.084891871 0.16647407 0.92024201 28567431
-0.08153443 0.16595683 0.91924387 28567431
-0.079490811 0.16581935 0.91972739 28567431
-0.076799482 0.16549161 0.91946238 28567431
-0.07476297 0.16535372 0.91993958 28567431
-0.072729528 0.16521564 0.92041391 28567431
-0.070699304 0.16507754 0.92088574 28567431
-0.068671986 0.16493931 0.92135519 28567431
-0.067290828 0.16499126 0.9225747 28567431
-0.065268025 0.16485283 0.92303985 28567431
-0.06260784 0.1645239 0.92274719 28567431
-0.059953138 0.16419482 0.92244929 28567431
-0.057942346 0.16405588 0.92290395 28567431
-0.055934101 0.16391695 0.92335635 28567431
-0.053929195 0.16377795 0.92380589 28567431
-0.052560017 0.16382945 0.92501467 28567431
-0.050559506 0.16369012 0.9254604 28567431
-0.048562005 0.16355079 0.92590326 28567431
-0.046567172 0.16341135 0.92634398 28567431
-0.044575572 0.16327178 0.92678159 28567431
-0.043212309 0.16332304 0.92798513 28567431
-0.041849241 0.1633743 0.92918903 28567431
-0.040486008 0.16342551 0.93039268 28567431
-0.038501769 0.16328564 0.93082398 28567431
-0.037140131 0.1633369 0.93202609 28567431
-0.035778493 0.16338798 0.93322855 28567431
-0.034416839 0.16343921 0.93443114 28567431
-0.032440022 0.16329908 0.93485576 28567431
-0.031693712 0.16354159 0.93683594 28567431
-0.028359607 0.16345263 0.93845886 28567431
-0.026999414 0.16350377 0.93966001 28567431
-0.025639355 0.16355485 0.94086105 28567431
-0.024279222 0.16360596 0.94206232 28567431
-0.022918761 0.16365713 0.94326323 28567431
-0.022161961 0.16390014 0.9452526 28567431
-0.020800576 0.16395128 0.94645494 28567431
-0.020039231 0.16419443 0.94844812 28567431
-0.018675759 0.16424564 0.94965178 28567431
-0.017910197 0.16448891 0.95164913 28567431
-0.016545415 0.16454026 0.9528541 28567431
-0.015180841 0.16459155 0.9540593 28567431
-0.013816401 0.16464287 0.95526415 28567431
-0.01304318 0.1648863 0.95726794 28567431
-0.010118648 0.16542527 0.96249229 28567431
-0.0093350559 0.1656692 0.96450537 28567431
-0.08280535 0.16819292 0.92061037 28567431
-0.080758676 0.16805348 0.92109674 28567431
-0.078064144 0.16772187 0.92083448 28567431
-0.069925442 0.16716206 0.92273849 28567431
-0.06789802 0.16702193 0.9232077 28567431
-0.065231875 0.16668928 0.92292053 28567431
-0.06321162 0.16654876 0.9233833 28567431
-0.060556069 0.16621575 0.92308706 28567431
-0.058543622 0.16607496 0.92354339 28567431
-0.056534156 0.165934 0.92399687 28567431
-0.054527566 0.16579309 0.92444783 28567431
-0.053156853 0.16584462 0.92565805 28567431
-0.051154822 0.16570345 0.92610544 28567431
-0.049155742 0.16556218 0.92654973 28567431
-0.047159627 0.16542083 0.92699152 28567431
-0.045793772 0.16547212 0.92819804 28567431
-0.043802023 0.16533056 0.9286359 28567431
-0.0424373 0.16538194 0.92984074 28567431
-0.041072831 0.16543311 0.93104583 28567431
-0.039708018 0.16548449 0.9322508 28567431
-0.038343534 0.16553578 0.93345588 28567431
-0.036978737 0.16558725 0.93466097 28567431
-0.034997568 0.16544518 0.93508965 28567431
-0.033634543 0.16549647 0.93629342 28567431
-0.032271534 0.1655477 0.93749696 28567431
-0.030908152 0.16559902 0.93870062 28567431
-0.02818206 0.16570145 0.94110817 28567431
-0.026818722 0.16575274 0.94231194 28567431
-0.025455907 0.16580394 0.94351536 28567431
-0.024092674 0.16585529 0.94471902 28567431
-0.022729531 0.16590658 0.94592279 28567431
-0.021366298 0.16595775 0.94712657 28567431
-0.020603359 0.16620305 0.94912094 28567431
-0.019238889 0.16625425 0.95032603 28567431
-0.017105356 0.16655087 0.95353073 28567431
-0.015739307 0.16660222 0.95473713 28567431
-0.014373139 0.16665369 0.95594352 28567431
-0.013598397 0.1668992 0.95794839 28567431
-0.012820646 0.16714492 0.95995611 28567431
-0.012039915 0.16739064 0.96196622 28567431
-0.069148257 0.16925076 0.92459327 28567431
-0.066479117 0.1689142 0.92430907 28567431
-0.064456359 0.16877189 0.92477447 28567431
-0.061797455 0.16843501 0.92448097 28567431
-0.059782088 0.16829234 0.92494005 28567431
-0.05776976 0.16814965 0.92539638 28567431
-0.05576016 0.16800675 0.92585021 28567431
-0.054386675 0.16805834 0.92706317 28567431
-0.052381665 0.16791537 0.92751306 28567431
-0.050379664 0.1677722 0.92796022 28567431
-0.048380703 0.16762906 0.92840475 28567431
-0.046384573 0.16748562 0.92884654 28567431
-0.045016989 0.16753697 0.93005413 28567431
-0.043649584 0.16758835 0.93126196 28567431
-0.042281836 0.16763985 0.93246967 28567431
-0.040914223 0.16769135 0.93367726 28567431
-0.038926989 0.16754755 0.93411142 28567431
-0.037561163 0.16759893 0.9353177 28567431
-0.035578206 0.16745514 0.9357478 28567431
-0.034213632 0.16750625 0.93695301 28567431
-0.032848969 0.16755775 0.93815774 28567431
-0.03073056 0.16785583 0.94134945 28567431
-0.029364496 0.16790709 0.94255573 28567431
-0.02602604 0.16781425 0.94418293 28567431
-0.024661452 0.16786563 0.94538802 28567431
-0.021932378 0.16796815 0.94779807 28567431
-0.021168008 0.16821533 0.94979376 28567431
-0.019801721 0.16826674 0.95100003 28567431
-0.018435508 0.16831815 0.95220631 28567431
-0.017665192 0.16856554 0.95420724 28567431
-0.016297564 0.16861692 0.95541483 28567431
-0.015522942 0.16886452 0.95741957 28567431
-0.013964519 0.16935995 0.96143717 28567431
-0.013180658 0.16960785 0.9634499 28567431
-0.077250525 0.17167065 0.9225685 28567431
-0.069755137 0.17129126 0.92522603 28567431
-0.067084402 0.17095089 0.92494315 28567431
-0.0630389 0.17066216 0.92587453 28567431
-0.060383216 0.17032126 0.92557865 28567431
-0.059005305 0.17037305 0.92679542 28567431
-0.056992725 0.17022836 0.92725199 28567431
-0.054983482 0.17008355 0.92770571 28567431
-0.053608522 0.1701352 0.92892009 28567431
-0.051603436 0.16999015 0.92937022 28567431
-0.049601585 0.16984504 0.92981738 28567431
-0.048229381 0.16989672 0.93102902 28567431
-0.046231911 0.16975135 0.93147236 28567431
-0.04486151 0.1698029 0.93268269 28567431
