# .PCD v0.7 - Point Cloud Data file format
VERSION 0.7
FIELDS x y z rgba
SIZE 4 4 4 4
TYPE F F F U
COUNT 1 1 1 1
WIDTH 513
HEIGHT 1
VIEWPOINT 0 0 0 1 0 0 0
POINTS 513
DATA ascii
-0.11418469 -0.13193825 0.97766399 20275649
-0.11302436 -0.13278529 0.98176032 20275649
-0.1126918 -0.12974638 0.97716403 20275649
-0.1137097 -0.13086405 0.98161221 20275649
-0.10749718 -0.035545852 0.92915261 23773826
-0.10909567 -0.035949439 0.93031913 23773826
-0.10944202 -0.036761586 0.93299311 23773826
-0.10661619 -0.034859788 0.93397349 23773826
-0.10820843 -0.035261825 0.93513542 23773826
-0.10663489 -0.032951485 0.93460834 23773826
-0.10947932 -0.032937452 0.93426526 23773826
-0.11426131 -0.046515994 0.96263748 27206467
-0.11499648 -0.046144471 0.96065623 27206467
-0.11513703 -0.045423321 0.95794684 27206467
-0.1153224 -0.045171313 0.96387881 27206467
-0.11485991 -0.044095188 0.96045214 27206467
-0.11619686 -0.044073116 0.95919245 27206467
-0.087225705 -0.14895183 0.86041123 30704644
-0.08043626 -0.11243873 0.80993825 17425861
-0.081339657 -0.11216313 0.80774289 17425861
-0.07864818 -0.10954869 0.80730665 17425861
-0.082361862 -0.10840382 0.80889326 17425861
-0.085554346 -0.10914447 0.80991173 17425861
-0.083780602 -0.10624308 0.80727261 17425861
-0.085260466 -0.10621872 0.80587798 17425861
-0.087308183 -0.10645115 0.80528951 17425861
-0.056232244 -0.1051918 0.80425048 20858502
-0.046033517 -0.094408095 0.86329722 24356679
-0.046888769 -0.094113149 0.86115873 24356679
-0.050693572 -0.093039975 0.86261851 24356679
-0.047903836 -0.090379499 0.86230117 24356679
-0.037686959 -0.096501432 0.84022808 27789320
-0.039054558 -0.093524128 0.84508282 27789320
-0.042336926 -0.10042841 0.91412348 31287753
-0.042826816 -0.098625854 0.91467518 31287753
-0.02295275 -0.14103171 0.83048928 18008714
-0.0033930987 -0.14371163 0.84172195 21441355
-0.0051921606 -0.14224279 0.84382313 21441355
-0.018922195 -0.11535437 0.83401245 24939532
-0.017631704 -0.14529626 0.88299799 28437965
-0.013985531 -0.13070573 0.88964188 31870606
-0.0085837264 -0.13016184 0.89339936 31870606
-0.0051259864 -0.12974201 0.89479935 31870606
-0.012900585 -0.12868474 0.88860708 31870606
-0.0094542969 -0.1282611 0.89001292 31870606
-0.0046861675 -0.12774569 0.89297366 31870606
-0.016392151 -0.12698957 0.88210213 31870606
-0.0055838376 -0.13293934 0.88449907 31870606
0.0099567622 -0.13383421 0.89132392 18591567
0.0090421289 -0.13318035 0.89828002 18591567
0.0089149326 -0.13268963 0.89545321 18591567
0.0074494928 -0.13266554 0.89407271 18591567
0.0093085915 -0.13147476 0.8890571 18591567
0.0058615357 -0.13226131 0.90173858 18591567
0.0050717741 -0.1320022 0.89964211 18591567
0.0049454719 -0.13150784 0.89681786 18591567
0.0041487068 -0.13124862 0.89471495 18591567
0.004674986 -0.13051891 0.8911534 18591567
0.0032341629 -0.13062209 0.90165579 18591567
0.002444163 -0.13036111 0.89955986 18591567
0.0015180558 -0.12960204 0.89463305 18591567
0.0038724393 -0.12765735 0.88604015 18591567
0.0027312487 -0.12877175 0.90222198 18591567
0.0026053041 -0.12827027 0.89940304 18591567
0.0023369044 -0.12726671 0.89374834 18591567
0.0035595447 -0.12644035 0.9013443 18591567
0.0034302026 -0.12593496 0.89852357 18591567
0.0049166232 -0.12334987 0.89692372 18591567
0.0077268332 -0.12026522 0.89388281 18591567
-0.0068298429 -0.1183731 0.92435211 22024208
-0.0075939149 -0.11809603 0.92228991 22024208
-0.014347747 -0.12009984 0.92666322 22024208
-0.0013159961 -0.11425705 0.91850048 22024208
0.00059531629 -0.11245139 0.9119162 22024208
-0.0087424368 -0.11211623 0.91833943 22024208
-0.006830737 -0.11195231 0.9186812 22024208
-0.0036886483 -0.11155804 0.91741699 22024208
-0.014905289 -0.11152812 0.9262163 22024208
-0.012979105 -0.11136563 0.92657119 22024208
-0.076063864 -0.048708908 0.95647937 25522641
-0.076975144 -0.049295709 0.95835686 25522641
-0.079172783 -0.045861509 0.95328611 25522641
-0.081951179 -0.045845851 0.95288986 25522641
-0.085069858 -0.039304417 0.94426274 25522641
-0.08539106 -0.040110219 0.94691837 25522641
-0.083854742 -0.03785456 0.94640368 25522641
-0.086027481 -0.038038936 0.94677937 25522641
-0.089443058 -0.037808616 0.94564182 25522641
-0.084809206 -0.036593948 0.94891614 25522641
-0.088221639 -0.036357161 0.94777822 25522641
-0.091643587 -0.036122806 0.94664711 25522641
-0.083590768 -0.035156474 0.95105052 25522641
-0.085760407 -0.035336271 0.95142514 25522641
-0.091040403 -0.034461338 0.94802535 25522641
-0.060562342 -0.081320442 0.94635075 29020818
-0.038277321 -0.039095212 0.95549482 32453459
-0.043994524 -0.039835405 0.96388 32453459
-0.044611461 -0.037827104 0.96370459 32453459
-0.044905864 -0.038637482 0.96633697 32453459
-0.042518653 -0.034021135 0.95792854 32453459
-0.042830542 -0.03668924 0.96661341 32453459
-0.043120213 -0.037502147 0.96924108 32453459
-0.030012766 -0.040332586 0.9669804 19174420
-0.032083504 -0.040489297 0.96728218 19174420
-0.026480524 -0.039873514 0.97223192 19174420
-0.029134972 -0.0398077 0.97175145 19174420
-0.022669347 -0.038626853 0.9748562 19174420
-0.024131218 -0.038995948 0.97592306 19174420
-0.027372712 -0.038704682 0.97466397 19174420
-0.022401417 -0.036059204 0.97281611 19174420
-0.022096364 -0.037097532 0.97621608 19174420
-0.024148336 -0.037243828 0.97650588 19174420
-0.030025141 -0.029497726 0.95722598 19174420
-0.023883602 -0.034673225 0.97446924 19174420
-0.034223437 -0.031678785 0.96391034 19174420
-0.032440662 -0.028689031 0.96077758 19174420
-0.027980313 -0.043465737 0.97636181 19174420
-0.019036219 -0.038354248 0.97284466 19174420
-0.023096874 -0.03968114 0.97419757 19174420
-0.023445025 -0.070794463 0.96822542 22672853
-0.070375293 -0.1362097 0.85901821 26105494
-0.070842609 -0.11652528 0.86001086 29603671
-0.06893383 -0.11367547 0.85747063 29603671
-0.071574375 -0.11416438 0.85766482 29603671
-0.079318047 -0.13784105 0.8659538 29603671
-0.078587815 -0.13596565 0.86510754 29603671
-0.080551654 -0.13442303 0.86457855 29603671
-0.076465234 -0.13381422 0.86279458 29603671
-0.080421567 -0.13246229 0.86185449 29603671
-0.079122528 -0.13241351 0.86300182 29603671
-0.075735405 -0.13195068 0.86194897 29603671
-0.076892897 -0.13005218 0.85808921 29603671
-0.074903488 -0.12986755 0.85849792 29603671
-0.07476218 -0.1279301 0.85578609 29603671
-0.072080225 -0.12761356 0.85545933 29603671
-0.071932957 -0.12568778 0.85275346 29603671
-0.069954336 -0.12550758 0.85315329 29603671
-0.070501849 -0.12372173 0.8511821 29603671
-0.068526164 -0.12354342 0.85157949 29603671
-0.065161988 -0.12310528 0.85050851 29603671
-0.070468351 -0.12201981 0.8510716 29603671
-0.067098215 -0.12158736 0.8500064 29603671
-0.063736826 -0.12115521 0.84893316 29603671
-0.070434526 -0.12031791 0.85096091 29603671
-0.068458945 -0.12014379 0.85135859 29603671
-0.064399049 -0.11959129 0.84955591 29603671
-0.07109946 -0.11874031 0.85158008 29603671
-0.068425268 -0.11844388 0.8512482 29603671
-0.06506145 -0.1180235 0.8501783 29603671
-0.071764231 -0.11715879 0.85219932 29603671
-0.069786057 -0.11698843 0.85259968 29603671
-0.065723598 -0.11645169 0.85080051 29603671
-0.07644549 -0.11903708 0.8577351 29603671
-0.050846055 -0.12923522 0.84799695 33036312
-0.057396024 -0.13227484 0.850115 19757529
-0.065185636 -0.11476781 0.85594618 23255706
-0.062817857 -0.13317321 0.85341626 26688347
-0.044452354 -0.11693855 0.8744486 30186524
-0.036000267 -0.12056575 0.85807067 16907741
-0.10219932 -0.11777637 0.96323609 20340382
-0.099400707 -0.11583428 0.96425152 20340382
-0.10091916 -0.11621765 0.96535969 20340382
-0.10212874 -0.120079 0.98102701 20340382
-0.099191725 -0.11336073 0.96222854 20340382
-0.098771028 -0.11414915 0.96561599 20340382
-0.1002879 -0.11453213 0.96672291 20340382
-0.098491862 -0.11765717 0.98018956 20340382
-0.098676108 -0.11830016 0.98278701 20340382
-0.10050142 -0.11126306 0.96131617 20340382
-0.10008373 -0.11205789 0.96470392 20340382
-0.10030563 -0.11271414 0.96732754 20340382
-0.098569475 -0.11377628 0.97221476 20340382
-0.098774187 -0.11442816 0.97482574 20340382
-0.098318808 -0.11521348 0.97818607 20340382
-0.09719874 -0.11613107 0.98229206 20340382
-0.096723005 -0.11691124 0.98563737 20340382
-0.098871581 -0.11715364 0.98597461 20340382
-0.087746821 -0.087996237 0.96648806 20340382
-0.095825352 -0.12301423 0.97107559 20340382
-0.094837867 -0.12276443 0.96926033 20340382
-0.094945483 -0.12261461 0.96575689 20340382
-0.092237346 -0.12132471 0.98748738 20340382
-0.093373232 -0.12127195 0.98225564 20340382
-0.092363857 -0.12101986 0.98042691 20340382
-0.09461052 -0.1210742 0.97351778 20340382
-0.093073957 -0.12077402 0.97254539 20340382
-0.094264485 -0.12073197 0.96734828 20340382
-0.095239006 -0.12006404 0.99021083 20340382
-0.093679331 -0.11975931 0.9892236 20340382
-0.087919787 -0.11874026 0.98795867 20340382
-0.08960674 -0.11875229 0.98188794 20340382
-0.090770379 -0.118715 0.97667545 20340382
-0.092495397 -0.11873444 0.97062886 20340382
-0.093146913 -0.11865009 0.96628243 20340382
-0.093563922 -0.11788584 0.9899739 20340382
-0.090642653 -0.11685724 0.97742152 20340382
-0.091818847 -0.11683247 0.97221917 20340382
-0.093011677 -0.11681094 0.96702719 20340382
-0.089785732 -0.11534173 0.98959464 20340382
-0.088221014 -0.11503603 0.98860431 20340382
-0.089973517 -0.11493852 0.97901297 20340382
-0.090600118 -0.11486533 0.9746536 20340382
-0.091785647 -0.11485253 0.96945906 20340382
-0.09310814 -0.11471988 0.96078449 20340382
-0.094917558 -0.1027451 0.98196709 20340382
-0.094439767 -0.10258227 0.97929215 20340382
-0.094507925 -0.10249126 0.97577661 20340382
-0.095870644 -0.1010047 0.98101974 20340382
-0.095930867 -0.10091827 0.97750026 20340382
-0.095462047 -0.10076118 0.97483188 20340382
-0.098428346 -0.099489495 0.97753191 20340382
-0.098493829 -0.099410102 0.97401708 20340382
-0.096953914 -0.099109344 0.97304267 20340382
-0.095953993 -0.098883331 0.97122461 20340382
-0.08321923 -0.096334539 0.96079546 20340382
-0.099378251 -0.097762622 0.97658551 20340382
-0.098907784 -0.097613283 0.97391742 20340382
-0.096291803 -0.097159721 0.97463238 20340382
-0.10086172 -0.096117184 0.9747923 20340382
-0.099321693 -0.095816448 0.97381794 20340382
-0.096169062 -0.095280722 0.97537696 20340382
-0.091845065 -0.13044265 0.99473327 20340382
-0.076224074 -0.12283654 0.97213238 20340382
-0.087141559 -0.12833749 0.99741453 20340382
-0.091662034 -0.12911102 0.99715072 20340382
-0.090145707 -0.1266672 0.99549955 20340382
-0.084264785 -0.12363473 0.98640233 20340382
-0.079065412 -0.12087551 0.97799379 20340382
-0.077160344 -0.1189154 0.97047335 20340382
-0.079771936 -0.11944138 0.97067434 20340382
-0.081733927 -0.11969353 0.97015625 20340382
-0.079838783 -0.11830232 0.96528822 20340382
-0.082444564 -0.11882834 0.96549433 20340382
-0.089307681 -0.12506011 0.9972046 20340382
-0.083411902 -0.12143512 0.98547333 20340382
-0.0814659 -0.12003566 0.98065835 20340382
-0.080181748 -0.11891152 0.97654921 20340382
-0.084096178 -0.1194196 0.97552019 20340382
-0.086692497 -0.1199495 0.97573346 20340382
-0.08093825 -0.1168948 0.96652836 20340382
-0.087138787 -0.12232243 0.99484891 20340382
-0.0819107 -0.11895073 0.98383003 20340382
-0.083214641 -0.11892931 0.9826017 20340382
-0.083871335 -0.11863029 0.98065418 20340382
-0.085176423 -0.11860884 0.97942454 20340382
-0.085837409 -0.1183098 0.97747308 20340382
-0.086501226 -0.11801078 0.975519 20340382
-0.082678348 -0.1157686 0.96849161 20340382
-0.081753612 -0.11991302 0.99685949 20340382
-0.079753891 -0.11733624 0.98679429 20340382
-0.080406725 -0.11703548 0.98485166 20340382
-0.081711978 -0.11701402 0.9836219 20340382
-0.084313333 -0.11755111 0.98382622 20340382
-0.084322408 -0.11697096 0.98116225 20340382
-0.086273029 -0.1172288 0.98065215 20340382
-0.086933017 -0.11692796 0.97870272 20340382
-0.086953372 -0.11634766 0.97602779 20340382
-0.083134457 -0.11409086 0.96900493 20340382
-0.083175108 -0.11351021 0.9663114 20340382
-0.080309346 -0.11917854 1.0031228 20340382
-0.08093679 -0.11887641 1.0012052 20340382
-0.081566766 -0.1185742 0.9992848 20340382
-0.081543595 -0.11799099 0.99665338 20340382
-0.08086507 -0.11479241 0.98269969 20340382
-0.084763736 -0.1158954 0.98433286 20340382
-0.087405503 -0.1146846 0.97653693 20340382
-0.086792558 -0.11381937 0.9731347 20340382
-0.088105097 -0.1137978 0.97189814 20340382
-0.087505072 -0.11293223 0.96848363 20340382
-0.088185564 -0.11262915 0.96651548 20340382
-0.090138495 -0.11288884 0.96600229 20340382
-0.083327025 -0.11750064 1.001199 20340382
-0.080020204 -0.11256351 0.98177963 20340382
-0.091782212 -0.11295703 0.97334832 20340382
-0.081801474 -0.11501128 0.99958235 20340382
-0.08828336 -0.1026173 0.97207719 20340382
-0.097215533 -0.10610323 0.97950608 20340382
-0.10611297 -0.10958985 0.98696798 20340382
-0.081748933 -0.097706132 0.96466261 20340382
-0.093227431 -0.10239043 0.97495824 20340382
-0.11162739 -0.10970207 0.99060625 20340382
-0.081575081 -0.09571404 0.96446162 20340382
-0.090512812 -0.099243827 0.97186095 20340382
-0.098783523 -0.10247816 0.97856992 20340382
-0.10828431 -0.106305 0.98675734 20340382
-0.090335682 -0.097270101 0.97165304 20340382
-0.097970843 -0.10022676 0.97763222 20340382
-0.10620725 -0.10348172 0.9843623 20340382
-0.083766282 -0.092917554 0.96693903 20340382
-0.091424242 -0.095892057 0.97288686 20340382
-0.097790748 -0.098267712 0.97741824 20340382
-0.10287537 -0.10004443 0.98052555 20340382
-0.086127445 -0.092127621 0.9696129 20340382
-0.091879904 -0.094216131 0.9733997 20340382
-0.09698154 -0.096003525 0.9764846 20340382
-0.092335522 -0.092540227 0.97391266 20340382
-0.10636868 -0.096701205 0.97908956 20340382
-0.09342213 -0.091169529 0.97514421 20340382
-0.096627876 -0.092063405 0.97606379 20340382
-0.099824503 -0.092957392 0.976991 20340382
-0.10119022 -0.092303783 0.97307771 20340382
-0.096510872 -0.089452125 0.97317511 20340382
-0.10170788 -0.090001263 0.97090298 20340382
-0.10340753 -0.088948764 0.9728629 20340382
-0.10471858 -0.088927157 0.97162741 20340382
-0.10510525 -0.087903619 0.97482044 20340382
-0.10703419 -0.088192813 0.97431296 20340382
-0.078139454 -0.1188754 0.96061593 23838559
-0.07818909 -0.11830923 0.95790523 23838559
-0.093459122 -0.088371493 0.95904851 27271200
-0.026491692 -0.12806956 0.87534606 30769633
-0.040784605 -0.12774311 0.8637377 30769633
-0.038062043 -0.12736964 0.86440456 30769633
-0.034032814 -0.12689912 0.86663401 30769633
-0.028686943 -0.12632988 0.87041998 30769633
-0.023321209 -0.12575662 0.87419337 30769633
-0.041814178 -0.1261286 0.86286026 30769633
-0.041037887 -0.12589985 0.8611747 30769633
-0.037016928 -0.12542298 0.86340797 30769633
-0.031680442 -0.12484331 0.86719739 30769633
-0.025671197 -0.12420942 0.87175542 30769633
-0.038050309 -0.1238072 0.86253226 30769633
-0.032718055 -0.12321629 0.86632222 30769633
-0.025408627 -0.12246445 0.8724429 30769633
-0.037785374 -0.1220879 0.86322308 30769633
-0.032454103 -0.12148518 0.86701143 30769633
-0.023843179 -0.1206071 0.87469196 30769633
-0.032191083 -0.11975015 0.86770022 30769633
-0.025537884 -0.11901915 0.87303603 30769633
-0.033877283 -0.11818466 0.86604327 30769633
-0.029184325 -0.11761332 0.86903787 30769633
-0.038290516 -0.11702591 0.86372858 30769633
-0.036859676 -0.1167465 0.86282343 30769633
-0.03477826 -0.11640694 0.86269855 30769633
-0.03996893 -0.11547913 0.86207074 30769633
-0.039838612 -0.11532357 0.85960418 30769633
-0.038414329 -0.11504551 0.85870314 30769633
-0.041645601 -0.11394005 0.86041337 30769633
-0.042165808 -0.11385266 0.85716736 30769633
-0.04204604 -0.11370334 0.85470849 30769633
-0.04202842 -0.11227829 0.86032122 30769633
-0.042547271 -0.11219675 0.85707587 30769633
-0.043075971 -0.11211713 0.8538366 30769633
-0.04176566 -0.11054944 0.86101151 30769633
-0.042281501 -0.1104733 0.85776532 30769633
-0.038904235 -0.12230472 0.86476564 30769633
-0.043735981 -0.11747586 0.86736959 30769633
-0.042375445 -0.11487233 0.86566061 30769633
-0.041422144 -0.11304418 0.8675999 30769633
-0.038818836 -0.10991206 0.86438864 30769633
-0.057261959 -0.082107812 0.86403412 17490594
-0.05957742 -0.081104845 0.86687177 17490594
-0.062239796 -0.081651889 0.86701268 17490594
-0.056194067 -0.096552417 0.8723287 17490594
-0.05741632 -0.093165562 0.87096602 17490594
-0.05738245 -0.091447838 0.87085432 17490594
-0.061151385 -0.086440392 0.86710131 17490594
-0.06176497 -0.083087072 0.86761969 17490594
-0.058241993 -0.080855034 0.8611865 17490594
-0.061730847 -0.081367418 0.86750793 17490594
-0.063637629 -0.078052901 0.86688358 17490594
-0.065651968 -0.076553866 0.86899108 17490594
-0.070952058 -0.071829848 0.87193644 17490594
-0.070917875 -0.07009051 0.87182337 17490594
-0.071567461 -0.068415314 0.87244815 17490594
-0.069542438 -0.066562414 0.87275112 17490594
-0.0721827 -0.06499292 0.87295914 17490594
-0.070190445 -0.064883299 0.87337679 17490594
-0.067520261 -0.064713493 0.8730517 17490594
-0.072832122 -0.063307889 0.87358338 17490594
-0.070838422 -0.063200258 0.8740024 17490594
-0.069528967 -0.063151032 0.87515885 17490594
-0.071486309 -0.061513186 0.87462777 17490594
-0.07017529 -0.0614639 0.87578547 17490594
-0.071451992 -0.05976779 0.87451422 17490594
-0.0714176 -0.058022439 0.87440079 17490594
-0.069425225 -0.057920758 0.87481898 17490594
-0.072065264 -0.056327559 0.87502557 17490594
-0.070071906 -0.056227796 0.87544519 17490594
-0.070718259 -0.054530848 0.87607127 17490594
-0.070683703 -0.052783426 0.87595755 17490594
-0.03669057 -0.11129933 0.97019076 20923235
-0.033930793 -0.1108702 0.97082454 20923235
-0.034184448 -0.10914428 0.97418183 20923235
-0.031417131 -0.10870966 0.9748103 20923235
-0.031682618 -0.10696989 0.97817189 20923235
-0.029495539 -0.10659365 0.97797734 20923235
-0.042230472 -0.093288571 0.97709733 20923235
-0.021769211 -0.11221778 0.94045895 20923235
-0.031434536 -0.11157154 0.94803303 20923235
-0.041419104 -0.11503416 0.95596534 20923235
-0.014642075 -0.10868613 0.95818394 20923235
-0.025146335 -0.10823222 0.94695371 20923235
-0.030525655 -0.10982857 0.94988221 20923235
-0.036549762 -0.11169523 0.95353609 20923235
-0.012977406 -0.10779444 0.96474606 20923235
-0.016406193 -0.1085859 0.96551055 20923235
-0.018471316 -0.10883463 0.96489662 20923235
-0.020533487 -0.10908326 0.96428543 20923235
-0.021243349 -0.10878889 0.96228451 20923235
-0.027623162 -0.10727048 0.94961435 20923235
-0.033658087 -0.10914973 0.95325071 20923235
-0.041657761 -0.11184452 0.95903116 20923235
-0.016178206 -0.10711809 0.96804816 20923235
-0.019599602 -0.10791516 0.96881646 20923235
-0.021658584 -0.10816582 0.96820742 20923235
-0.023039088 -0.10814305 0.96690673 20923235
-0.024419084 -0.10812032 0.96560627 20923235
-0.021763191 -0.10645718 0.96012419 20923235
-0.018453285 -0.10452026 0.95392758 20923235
-0.015163735 -0.102583 0.94771165 20923235
-0.015236095 -0.10201284 0.94498199 20923235
-0.019315973 -0.10308357 0.9464609 20923235
-0.026046067 -0.10524859 0.95076567 20923235
-0.038774371 -0.10930622 0.95873398 20923235
-0.047420129 -0.11229314 0.96522611 20923235
-0.020755365 -0.10643374 0.97004503 20923235
-0.023488745 -0.10696128 0.97012895 20923235
-0.024866328 -0.10693864 0.96883124 20923235
-0.026243672 -0.10691592 0.96753329 20923235
-0.024259791 -0.10551703 0.96275371 20923235
-0.022290871 -0.10411787 0.95796031 20923235
-0.018997326 -0.10216794 0.95175534 20923235
-0.017059997 -0.10076829 0.94693202 20923235
-0.020468399 -0.10157103 0.94770998 20923235
-0.03721267 -0.10730784 0.95985752 20923235
-0.045870259 -0.11031467 0.96632713 20923235
-0.020555004 -0.10440188 0.96989161 20923235
-0.023288801 -0.10493309 0.96997303 20923235
-0.02534233 -0.10518749 0.96936721 20923235
-0.02739276 -0.10544182 0.96876365 20923235
-0.026753709 -0.10458787 0.96537966 20923235
-0.026123151 -0.10373389 0.96198779 20923235
-0.02282615 -0.10177118 0.95579356 20923235
-0.021551147 -0.10063952 0.95167965 20923235
-0.024283782 -0.10117088 0.95176262 20923235
-0.020355985 -0.10236641 0.96973962 20923235
-0.022414431 -0.10262249 0.96912748 20923235
-0.025144354 -0.10315744 0.96921057 20923235
-0.027195856 -0.1034136 0.96860522 20923235
-0.027230874 -0.1028331 0.96591681 20923235
-0.027941242 -0.10253135 0.9639197 20923235
-0.027986154 -0.10195071 0.96122187 20923235
-0.021541849 -0.10030445 0.96828395 20923235
-0.024947211 -0.10112374 0.96905512 20923235
-0.027672008 -0.10166243 0.96914095 20923235
-0.028378651 -0.10135901 0.9671486 20923235
-0.030426875 -0.1016171 0.96654552 20923235
-0.031804413 -0.1015944 0.96524769 20923235
-0.019283816 -0.098001905 0.96874982 20923235
-0.024078354 -0.098803855 0.96820933 20923235
-0.028148219 -0.099911325 0.96967703 20923235
-0.030195758 -0.10017119 0.96907347 20923235
-0.03224051 -0.10043109 0.96847242 20923235
-0.023211405 -0.096476652 0.96736592 20923235
-0.02862443 -0.098160177 0.97021312 20923235
-0.032010838 -0.098990746 0.97099596 20923235
-0.034720466 -0.099536978 0.97109181 20923235
-0.022194579 -0.097117417 0.97990292 20923235
-0.028429732 -0.096122764 0.97005731 20923235
-0.03181608 -0.096958853 0.97083718 20923235
-0.021278754 -0.0965892 0.98703831 20923235
-0.024696574 -0.096832015 0.98514062 20923235
-0.020722821 -0.092709966 0.97036964 20923235
-0.029576614 -0.094657831 0.97128481 20923235
-0.03429769 -0.096075647 0.97344917 20923235
-0.025849089 -0.095383428 0.98635358 20923235
-0.024519458 -0.093599744 0.9796775 20923235
-0.022550628 -0.091525644 0.97228223 20923235
-0.02636905 -0.091829598 0.97891718 20923235
-0.026396707 -0.091223665 0.97625035 20923235
-0.026430115 -0.090617649 0.97357816 20923235
-0.029151514 -0.091178305 0.97365481 20923235
-0.033874825 -0.092614301 0.97580665 20923235
-0.029541895 -0.09125603 0.98218781 20923235
-0.028891787 -0.090353064 0.9788422 20923235
-0.029593214 -0.090036869 0.97686154 20923235
-0.031637892 -0.090307765 0.97625452 20923235
-0.037691653 -0.092340142 0.97978646 20923235
-0.041056365 -0.093198478 0.98057455 20923235
-0.032056317 -0.089788675 0.98211557 20923235
-0.033423647 -0.089766182 0.98082703 20923235
-0.036130086 -0.090334423 0.9809137 20923235
-0.040835589 -0.091789015 0.98307234 20923235
-0.044859499 -0.09294837 0.98455423 20923235
-0.035237536 -0.088622294 0.98273009 20923235
-0.037939981 -0.089194231 0.98281842 20923235
-0.04197225 -0.090360828 0.98428875 20923235
-0.045992896 -0.091527574 0.98576981 20923235
-0.050002024 -0.092694528 0.98726159 20923235
-0.053999484 -0.093861602 0.98876435 20923235
-0.03704913 -0.087485738 0.98463124 20923235
-0.039747909 -0.088061348 0.98472089 20923235
-0.04444243 -0.089534454 0.98687929 20923235
-0.047790974 -0.09040945 0.9876731 20923235
-0.050466508 -0.090985559 0.98778468 20923235
-0.03685008 -0.085453853 0.98447651 20923235
-0.03888151 -0.085732333 0.98387808 20923235
-0.04357639 -0.087214507 0.98603088 20923235
-0.048276231 -0.088072754 0.9855482 20923235
-0.050950691 -0.08865241 0.98565859 20923235
-0.050976083 -0.088028252 0.98300427 20923235
-0.036681637 -0.082790487 0.98166686 20923235
-0.041379705 -0.08428172 0.98381132 20923235
-0.044733956 -0.085167617 0.98459393 20923235
-0.046753079 -0.085448131 0.98400563 20923235
-0.048107341 -0.085425749 0.98272961 20923235
-0.029769942 -0.078333825 0.97733778 20923235
-0.033151492 -0.079224825 0.97809106 20923235
-0.037190214 -0.080420472 0.97953862 20923235
-0.044570327 -0.082507849 0.98177773 20923235
-0.03353864 -0.074139386 0.97313756 20923235
-0.031086937 -0.11251026 0.94408637 20923235
