# .PCD v0.7 - Point Cloud Data file format
VERSION 0.7
FIELDS x y z rgba
SIZE 4 4 4 4
TYPE F F F U
COUNT 1 1 1 1
WIDTH 1077
HEIGHT 1
VIEWPOINT 0 0 0 1 0 0 0
POINTS 1077
DATA ascii
-0.028193945 -0.080529995 0.87408268 28437965
-0.040262349 -0.078715198 0.86321563 28437965
-0.037257306 -0.10712817 0.97906488 25522641
-0.091974959 -0.099976696 0.93415093 20858502
-0.11653132 -0.098884046 0.92255986 20858502
-0.10335674 -0.10771246 0.96213031 19757529
-0.10315926 -0.10918196 0.96813428 19757529
0.00065469556 -0.074416876 0.8659333 29085551
-0.00036699511 -0.074980624 0.86790794 29085551
0.0012868401 -0.076397605 0.87407506 29085551
-0.037572764 -0.076730803 0.86433333 28437965
-0.00058637001 -0.097967945 0.96024263 19239409
-0.091367461 -0.098263241 0.93554264 20858502
-0.10327173 -0.096988358 0.92702371 20858502
-0.1035847 -0.097678863 0.92971003 20858502
-0.10653897 -0.11157239 0.9847126 19757529
-0.11922918 -0.11171899 0.9816829 19757529
0.0032932367 -0.073421158 0.87075639 29085551
0.0028124359 -0.074157886 0.87356424 29085551
-0.023236612 -0.078273885 0.88274586 28437965
-0.032026723 -0.076493911 0.87319124 28437965
0.00025673769 -0.095723026 0.95895898 19239409
-0.015796321 -0.10039159 0.97313011 25522641
-0.10234395 -0.094556041 0.92573208 20858502
-0.10329018 -0.095102623 0.92765099 20858502
-0.10889717 -0.11067 0.98824811 19757529
-0.11173112 -0.11077029 0.98785931 19757529
0.0054005589 -0.072268926 0.87473315 29085551
0.0017284732 -0.071957961 0.87250179 29085551
-0.025913967 -0.095961675 0.96020043 25522641
-0.016055306 -0.099353552 0.97633392 25522641
-0.10692029 -0.1092958 0.99107444 19757529
0.0032570194 -0.069713674 0.87198973 29085551
-0.025008375 -0.095224142 0.96501791 25522641
-0.039597988 -0.10108785 0.98425454 25522641
-0.04598292 -0.10020861 0.97909647 25522641
-0.11714374 -0.09949097 0.95739532 20275649
0.0047477018 -0.066539072 0.86782575 29085551
0.00478567 -0.067469396 0.87147766 29085551
-0.023492703 -0.094660968 0.97061193 25522641
-0.04084722 -0.09904284 0.98327613 25522641
-0.11716188 -0.097633459 0.95801312 20275649
-0.10378613 -0.10428201 0.98750198 19757529
0.0073708575 -0.065588728 0.87264651 29085551
-0.039631717 -0.097628735 0.98540527 25522641
-0.11807593 -0.096317381 0.96051085 20275649
-0.10493856 -0.10151047 0.98402429 19757529
-0.10314353 -0.10263321 0.98884398 19757529
0.010965062 -0.063143723 0.87185115 29085551
0.012056654 -0.064453535 0.87718123 29085551
0.011050766 -0.065024577 0.8791405 29085551
-0.020541491 -0.080928333 0.93282723 22672853
-0.040264778 -0.095737688 0.98520476 25522641
-0.10429747 -0.099856444 0.98536921 19757529
0.015673531 -0.062972918 0.88003916 29085551
0.014672404 -0.063544683 0.88199437 29085551
0.012089504 -0.063558921 0.88142997 29085551
-0.069154389 -0.061744705 0.85498649 31287753
-0.019983521 -0.07931225 0.93422747 22672853
-0.043979093 -0.093026057 0.98113066 25522641
-0.094332479 -0.090748526 0.96031374 21441355
-0.094181389 -0.092305161 0.96632707 19757529
-0.11489329 -0.089560613 0.95082349 20275649
-0.11436475 -0.0919789 0.96023548 20275649
-0.1056324 -0.097748183 0.98448074 19757529
0.018754316 -0.061321933 0.88205945 29085551
0.0182816 -0.062082972 0.88485259 29085551
0.015181316 -0.061903238 0.8834427 29085551
0.011543309 -0.061538417 0.88120109 29085551
-0.034741603 -0.091513492 0.98474973 25522641
-0.037409276 -0.091545336 0.98424834 25522641
-0.041312687 -0.091247484 0.98220026 25522641
-0.093459122 -0.088371493 0.95904851 21441355
-0.086691447 -0.090833701 0.97002304 21441355
-0.089068078 -0.091754675 0.97298145 19757529
-0.11568441 -0.08981207 0.95935369 20275649
0.020831099 -0.060258523 0.8860321 29085551
0.015163464 -0.060075793 0.88405049 29085551
-0.034767598 -0.062355381 0.88133526 31287753
-0.06072326 -0.059549578 0.86479509 31287753
-0.064056009 -0.059422825 0.86355656 31287753
-0.03941685 -0.087734677 0.97648907 25522641
-0.041485667 -0.087934256 0.97677517 25522641
-0.097663611 -0.084690861 0.95170206 21441355
-0.087746821 -0.087996237 0.96648806 19757529
-0.084794275 -0.089509889 0.97289783 21441355
-0.1142836 -0.085982613 0.95281875 20275649
-0.10810276 -0.092813201 0.98011887 19757529
-0.10698495 -0.093821913 0.98419696 19757529
0.021860665 -0.058825325 0.88831836 29085551
0.019821702 -0.059015524 0.88858336 29085551
0.013565322 -0.057673603 0.88214302 29085551
-0.064074986 -0.057474986 0.86420459 31287753
-0.022337673 -0.073231272 0.93279988 22672853
-0.063834533 -0.07916411 0.94596112 32453459
-0.050676428 -0.083632842 0.9657082 32453459
-0.090695225 -0.084647715 0.96067059 21441355
-0.085217699 -0.086835556 0.97012502 21441355
-0.1089787 -0.091536552 0.98257273 19757529
0.025445117 -0.057407655 0.89118236 29085551
0.022366663 -0.057205405 0.88976198 29085551
0.018753504 -0.056811623 0.88750952 29085551
-0.033229448 -0.058182456 0.88144177 31287753
-0.035923928 -0.058209758 0.88096356 31287753
-0.063523233 -0.0557095 0.8656581 31287753
-0.027315596 -0.070729248 0.92968327 22672853
-0.061091021 -0.078930736 0.95310789 32453459
-0.060760535 -0.079826869 0.95653349 32453459
-0.099957772 -0.079601921 0.94724703 21441355
-0.084598623 -0.085192718 0.97148442 21441355
-0.11010969 -0.088695444 0.97910035 19757529
0.025427489 -0.05560093 0.89178324 29085551
0.021825274 -0.055196874 0.88952535 29085551
0.018210499 -0.054795973 0.88727653 29085551
-0.045941092 -0.053917017 0.87056446 31287753
-0.060780056 -0.053722985 0.86673325 31287753
-0.028487334 -0.068557173 0.92868316 22672853
-0.064457282 -0.076982483 0.95248824 32453459
-0.064741477 -0.077711016 0.95513886 32453459
-0.087555014 -0.081829257 0.96567833 21441355
-0.087163195 -0.082715496 0.96905738 21441355
-0.10663914 -0.086976215 0.98082632 19757529
0.028478919 -0.054010153 0.89380765 29085551
0.025409831 -0.053794246 0.89238423 29085551
0.021283893 -0.05318461 0.88929003 29085551
0.017667456 -0.052776575 0.88704485 29085551
-0.061937608 -0.051407643 0.86576802 31287753
-0.026418878 -0.066550262 0.92898411 22672853
-0.027927918 -0.06693124 0.93008524 22672853
-0.091638304 -0.079714738 0.96436632 21441355
-0.10993496 -0.084334463 0.97771788 19757529
0.02996414 -0.051829658 0.89331019 29085551
0.024870006 -0.051787205 0.89214587 29085551
0.020218683 -0.050968606 0.88821751 29085551
-0.059110232 -0.050403863 0.87044024 31287753
-0.025861053 -0.064928554 0.93038619 22672853
-0.02909979 -0.064749807 0.92908835 22672853
-0.062079474 -0.070751645 0.94461161 32453459
-0.092566915 -0.071141742 0.94001013 21441355
-0.090369917 -0.072580017 0.94572932 21441355
-0.11542059 -0.081894636 0.97499323 19757529
0.02380806 -0.049574196 0.89106995 29085551
0.019153489 -0.048745122 0.88714772 29085551
0.013954675 -0.0477193 0.88240266 29085551
-0.050236166 -0.049562484 0.87679303 31287753
-0.027029721 -0.062744372 0.92938751 22672853
-0.026231805 -0.06387911 0.93368453 22672853
-0.058757938 -0.069085173 0.94644147 32453459
-0.059062451 -0.069830164 0.9491033 32453459
-0.06301181 -0.069491141 0.94710606 32453459
-0.086342789 -0.071039222 0.9482739 21441355
-0.11237025 -0.079281248 0.9733659 19757529
0.021179399 -0.04674137 0.88748211 29085551
0.017040616 -0.046106663 0.88440633 29085551
-0.024534015 -0.054588221 0.90742934 19174420
-0.053455122 -0.048452746 0.87976617 31287753
-0.023593919 -0.062077589 0.93478489 22672853
-0.024517922 -0.062646851 0.93667841 22672853
-0.058750123 -0.065579139 0.94093233 32453459
-0.056353994 -0.06799762 0.95015651 32453459
-0.059080109 -0.068014055 0.94970739 32453459
-0.06181255 -0.068032093 0.94926298 32453459
-0.087932251 -0.067908145 0.94393945 21441355
-0.086360857 -0.069191121 0.9488886 21441355
-0.087276973 -0.069758385 0.95077634 21441355
-0.093209147 -0.068904616 0.94657093 21441355
-0.11127282 -0.076153085 0.96950603 19757529
-0.11085401 -0.077055193 0.97285801 19757529
-0.11369643 -0.07710097 0.97249371 19757529
0.023722967 -0.044948559 0.8886562 29085551
-0.023381168 -0.061233755 0.93887097 22672853
-0.057842456 -0.063178316 0.93964672 32453459
-0.057563446 -0.064121358 0.9430989 32453459
-0.058482684 -0.06469129 0.94498831 32453459
-0.05758255 -0.065815337 0.94920582 32453459
-0.061525784 -0.065459676 0.94720906 32453459
-0.088573046 -0.065870076 0.94379318 21441355
-0.087627351 -0.066982582 0.9479773 21441355
-0.087920837 -0.067732379 0.95062858 21441355
-0.10845306 -0.074267901 0.97048593 19757529
-0.10933786 -0.074829161 0.97235006 19757529
-0.1102195 -0.075389557 0.97421205 19757529
-0.11306027 -0.075431176 0.97384793 19757529
0.005879743 -0.057143442 0.93637168 22737586
-0.042365544 -0.046563875 0.88997406 31287753
-0.053379826 -0.045608029 0.88461387 31287753
-0.024424093 -0.057321116 0.93169004 22672853
-0.023629045 -0.058479272 0.93598187 22672853
-0.023975788 -0.059246261 0.93867087 22672853
-0.032418929 -0.057301436 0.93021631 22672853
-0.058785848 -0.061920561 0.94214928 32453459
-0.06031213 -0.062305924 0.94326305 32453459
-0.060021996 -0.06325186 0.94670528 32453459
-0.090459369 -0.063463204 0.94212091 21441355
-0.092639737 -0.063674033 0.94249415 21441355
-0.092319958 -0.064612389 0.94591445 21441355
0.014329156 -0.05665648 0.9429543 22737586
0.011211021 -0.056418952 0.94157761 22737586
-0.042950228 -0.044473827 0.88979888 31287753
-0.054649845 -0.04230383 0.88007617 31287753
-0.055682175 -0.042906139 0.882047 31287753
-0.033626728 -0.052367892 0.91951597 22672853
-0.025949152 -0.055895034 0.93339115 22672853
-0.02399336 -0.057450853 0.93926799 22672853
-0.031279087 -0.055874363 0.93241113 22672853
0.021618156 -0.055813216 0.94793761 22737586
0.017420894 -0.055155516 0.94491684 22737586
0.015416285 -0.055318139 0.94516289 22737586
-0.058447562 -0.040993012 0.88225639 31287753
-0.028269356 -0.053295761 0.93080544 22672853
-0.025165303 -0.055259954 0.93827426 22672853
-0.03129679 -0.054060169 0.93301469 22672853
0.017403921 -0.053414699 0.94549584 22737586
-0.046270214 -0.040480148 0.88980597 31287753
-0.060756497 -0.038266368 0.87970269 31287753
-0.02749181 -0.052662257 0.93569309 22672853
-0.029578114 -0.052843649 0.93599933 22672853
-0.088021368 -0.056893338 0.94094706 21441355
-0.051859088 -0.037556808 0.88599378 31287753
-0.060202695 -0.036538169 0.8811428 31287753
-0.027509471 -0.050855551 0.93629408 22672853
-0.029595731 -0.05103505 0.93660092 22672853
-0.086180642 -0.055598829 0.94385797 21441355
-0.083385013 -0.05732381 0.95032662 21441355
0.031687886 -0.050856803 0.95199949 22737586
0.030255808 -0.051218402 0.95304453 22737586
0.027732057 -0.051157363 0.95245653 22737586
-0.04176452 -0.03832848 0.89747339 31287753
-0.04903058 -0.036671586 0.89062655 31287753
-0.058503911 -0.035222881 0.88417578 31287753
-0.033503793 -0.046018947 0.92546266 22672853
-0.028104378 -0.048845433 0.93610138 22672853
-0.028455624 -0.049632441 0.93878758 22672853
-0.083720021 -0.054508317 0.94752806 21441355
-0.084645532 -0.055091098 0.94941813 21441355
-0.058522612 -0.033299491 0.88481545 31287753
-0.027544657 -0.04724215 0.93749601 22672853
-0.026736738 -0.048442278 0.94176358 22672853
-0.078160904 -0.054405682 0.95500344 21441355
-0.084042244 -0.053433433 0.95079529 21441355
-0.056823671 -0.032001153 0.88784277 31287753
-0.025253089 -0.046264108 0.9412666 22672853
-0.02501758 -0.047263388 0.94473577 22672853
-0.034059964 -0.044958502 0.93555641 22672853
-0.074497089 -0.051992178 0.95414138 21441355
-0.075409889 -0.052575614 0.95602137 21441355
-0.02238399 -0.045510091 0.94582385 22672853
-0.023298332 -0.046095792 0.94770426 22672853
-0.024790073 -0.046472438 0.94879287 22672853
-0.037215315 -0.03640309 0.91964328 22672853
-0.023787009 -0.04228669 0.9413681 22672853
-0.020669373 -0.044353094 0.9487927 22672853
-0.021000134 -0.045150012 0.95145893 22672853
-0.024807548 -0.044684567 0.94938755 22672853
-0.091121875 -0.067492217 1.0183905 26688347
-0.093250595 -0.067672998 1.0187316 26688347
0.034170672 -0.017960453 0.87299985 32518192
0.046143018 -0.031790968 0.92121983 33101301
-0.020109406 -0.042781774 0.95017666 22672853
-0.079172783 -0.045861509 0.95328611 21441355
-0.081951179 -0.045845851 0.95288986 21441355
-0.088867843 -0.064804293 1.0161055 26688347
-0.09099514 -0.064982802 1.0164461 26688347
-0.09312547 -0.065162137 1.0167888 26688347
0.036190443 -0.015965857 0.87333649 32518192
0.034656323 -0.016353218 0.87445599 32518192
0.035142772 -0.017672243 0.87894583 32518192
0.048102453 -0.029900288 0.92157155 33101301
-0.088075906 -0.06248175 1.0148888 26688347
-0.090203106 -0.062658422 1.0152299 26688347
-0.092333443 -0.062835827 1.015573 26688347
0.038707502 -0.014211776 0.87451935 32518192
0.037176572 -0.014598332 0.87563658 32518192
0.035645545 -0.014984872 0.87675381 32518192
-0.085069858 -0.039304417 0.94426274 21441355
-0.10749718 -0.035545852 0.92915261 17425861
-0.10909567 -0.035949439 0.93031913 17425861
-0.10944202 -0.036761586 0.93299311 17425861
-0.090065539 -0.06013304 1.0132816 26688347
-0.092197478 -0.060308997 1.0136265 26688347
-0.093011342 -0.060876861 1.0154312 26688347
0.039190091 -0.012614721 0.87597454 32518192
0.038162746 -0.013238376 0.87793422 32518192
0.036634892 -0.013624119 0.87904918 32518192
-0.083854742 -0.03785456 0.94640368 21441355
-0.086027481 -0.038038936 0.94677937 21441355
-0.089443058 -0.037808616 0.94564182 21441355
-0.10661619 -0.034859788 0.93397349 17425861
-0.10820843 -0.035261825 0.93513542 17425861
-0.091397755 -0.057971306 1.0124084 26688347
-0.093532845 -0.058146182 1.0127565 26688347
0.042198434 -0.011115951 0.87800407 32518192
0.040673733 -0.011500916 0.87911665 32518192
0.039149031 -0.011885878 0.88022935 32518192
-0.030012766 -0.040332586 0.9669804 33036312
-0.032083504 -0.040489297 0.96728218 33036312
-0.084809206 -0.036593948 0.94891614 21441355
-0.088221639 -0.036357161 0.94777822 21441355
-0.091643587 -0.036122806 0.94664711 21441355
-0.10663489 -0.032951485 0.93460834 17425861
-0.10947932 -0.032937452 0.93426526 17425861
-0.091906801 -0.055228032 1.0097276 26688347
0.044700086 -0.0093884757 0.87919092 32518192
0.043178543 -0.0097726369 0.88030136 32518192
0.041656993 -0.010156827 0.88141173 32518192
0.041139543 -0.011023477 0.88420683 32518192
-0.044905864 -0.038637482 0.96633697 33036312
-0.083590768 -0.035156474 0.95105052 21441355
-0.085760407 -0.035336271 0.95142514 21441355
-0.091040403 -0.034461338 0.94802535 21441355
0.051185258 -0.008512184 0.88350928 32518192
0.048187181 -0.0081594586 0.88207263 32518192
0.046174526 -0.0082977582 0.88233316 32518192
0.04465761 -0.0086807637 0.88344014 32518192
0.043641329 -0.0093072746 0.88538998 32518192
-0.042518653 -0.034021135 0.95792854 33036312
-0.042830542 -0.03668924 0.96661341 33036312
-0.043120213 -0.037502147 0.96924108 33036312
0.052156202 -0.0071956962 0.88580525 32518192
0.049161181 -0.0068365522 0.88436818 32518192
0.047151551 -0.0069721807 0.8846271 32518192
0.045637868 -0.0073543433 0.8857317 32518192
0.045125253 -0.0082273521 0.88852084 32518192
-0.038882382 -0.024977092 0.93533307 29603671
-0.022096364 -0.037097532 0.97621608 33036312
-0.024148336 -0.037243828 0.97650588 33036312
0.050135203 -0.0055211689 0.88666123 32518192
0.048626192 -0.0059021525 0.88776237 32518192
0.047117196 -0.0062831435 0.8888635 32518192
-0.030025141 -0.029497726 0.95722598 33036312
-0.034223437 -0.031678785 0.96391034 33036312
-0.012070427 -0.0047681704 0.89223766 26170227
0.024647875 -0.0099313846 0.91787219 29668404
0.02621237 -0.0088839829 0.92092717 29668404
0.015274866 -0.0059272763 0.91084141 26170227
-0.0051455218 -0.0030775503 0.90044826 26170227
-0.01041116 -0.0028821384 0.89947283 26170227
0.028304366 -0.0080977893 0.92479748 29668404
0.016318126 -0.0046113571 0.91307831 26170227
-0.0029198769 -0.0033390145 0.90785474 26170227
-0.0055417139 -0.0032348288 0.90736026 26170227
0.032400005 -0.007205849 0.92840403 29668404
0.030396653 -0.0073267054 0.92866278 29668404
0.027332118 -0.0069454517 0.92728925 29668404
0.00031121634 -0.0029880619 0.91331565 26170227
-0.0017581303 -0.0031255898 0.91362262 26170227
-0.0038306806 -0.0032638812 0.91393167 26170227
0.037948258 -0.0059659341 0.93094444 29668404
0.035955824 -0.0060821585 0.93119568 29668404
0.033960193 -0.006199128 0.93144935 29668404
0.031961463 -0.00631689 0.93170512 29668404
0.029430686 -0.0061821556 0.93114668 29668404
0.000939494 -0.0025431938 0.91826326 26170227
-0.0011251811 -0.0026776174 0.9185673 26170227
-0.0037392993 -0.0025638537 0.91806948 26170227
0.039499201 -0.0049766591 0.93399167 29668404
0.036987171 -0.0048334226 0.9334206 29668404
0.035520546 -0.0052037076 0.93449092 29668404
0.034581378 -0.0058296416 0.93637836 29668404
0.0020079818 -0.0012247129 0.92048073 26170227
0.00049108081 -0.0016077072 0.92158759 26170227
-0.0021182839 -0.0014889822 0.92108774 26170227
-0.0030904952 -0.0021232511 0.92299908 26170227
-0.0061146412 -0.015327459 0.96367121 30251513
0.0035071131 0.00097630499 0.9199785 26170227
0.00047337078 0.00021025585 0.92219234 26170227
-0.0010435376 -0.00017271703 0.92329931 26170227
-0.0020125676 -0.0008080476 0.92520773 26170227
-0.0013301615 -0.0021983651 0.92951554 26170227
-0.002958836 -0.013938636 0.96554542 30251513
-0.0061318073 -0.013567816 0.96425653 30251513
0.0036019515 0.0016450477 0.92410356 26170227
3.1357631e-05 0.0011360687 0.92550838 26170227
-0.00093452074 0.00049962895 0.92741394 26170227
-0.0013478417 -0.00038978038 0.93011719 26170227
-0.0012038145 -0.0015310706 0.93361455 26170227
0.0057569724 0.0024282807 0.92792177 26170227
0.00014354102 0.0017998056 0.92961758 26170227
-0.0008160416 0.0011631115 0.93151802 26170227
-0.0017724056 0.0005271933 0.93341625 26170227
3.7265942e-05 -0.0013824487 0.93929678 26170227
0.0031439718 0.0043704179 0.92801678 26170227
0.0010886323 0.0042477795 0.92831707 26170227
0.00012594275 0.0036084051 0.93021923 26170227
-0.00083363242 0.0029697777 0.93211907 26170227
-0.0017900337 0.002331967 0.93401653 26170227
-0.0021907035 0.001438207 0.93670809 26170227
0.00065622292 0.0051571508 0.93161994 26170227
-0.0014007408 0.0050359569 0.93192196 26170227
-0.0044187624 0.0042739217 0.93412441 26170227
-0.004265191 0.0031180833 0.9376092 26170227
-0.0014183838 0.0068445238 0.93252355 26170227
-0.073409587 0.045986686 0.96249378 21506088
-0.074032754 0.048148148 0.96237308 21506088
-0.075591952 0.047754437 0.96351099 21506088
-0.075201571 0.060056664 0.93663859 30769633
-0.076823249 0.050215259 0.96265292 21506088
-0.077777579 0.049525142 0.96453172 21506088
-0.079011999 0.051990803 0.96367794 21506088
-0.080594249 0.053470384 0.96544278 21506088
-0.082441628 0.056247398 0.96385926 21506088
-0.082551323 0.057696342 0.97106004 21506088
-0.057008326 0.065560497 0.95420837 17490594
-0.063871793 0.067971684 0.94860804 17490594
-0.084130354 0.059172899 0.97282135 21506088
-0.083534107 0.060736381 0.97417331 21506088
-0.055869162 0.068666473 0.95694888 17490594
-0.063908637 0.071743168 0.94986254 17490594
-0.084495544 0.061902821 0.97666073 21506088
-0.089463204 0.057398863 0.98852861 25004521
-0.056475185 0.070849217 0.95682132 17490594
-0.065105759 0.074263535 0.94899631 17490594
-0.085129835 0.064080276 0.97655451 21506088
-0.057081304 0.073035695 0.95669496 17490594
-0.041912027 0.093165547 0.95755988 24421412
-0.17109703 0.097545788 1.0053998 27854309
-0.17111596 0.09948796 1.0060457 27854309
-0.16600545 0.092489362 1.0315034 31352486
-0.16464961 0.093714371 1.033457 31352486
-0.11628554 0.11600616 0.98018533 20340382
-0.16916315 0.10623487 1.0106361 20340382
-0.099638306 0.10981875 0.99654186 20340382
-0.16850579 0.10782883 1.0119486 20340382
-0.16426343 0.099660873 1.0297614 31352486
-0.16242118 0.097559579 1.0342252 31352486
-0.16056316 0.095462292 1.0386776 31352486
-0.13104482 0.11252962 1.0003349 20340382
-0.16587679 0.10476516 1.0234306 20340382
-0.16359784 0.10121918 1.0310556 31352486
-0.15733013 0.094559036 1.0450577 20340382
-0.10004892 0.10365657 1.0201117 20340382
-0.12134341 0.1091382 1.011283 20340382
-0.1294094 0.11227217 1.0055653 20340382
-0.13034415 0.11151903 1.0074077 20340382
-0.156718 0.1193376 0.9941628 20340382
-0.15834631 0.11892644 0.99535114 20340382
-0.16701619 0.10846443 1.0202438 20340382
-0.16657643 0.10702427 1.023404 20340382
-0.16407967 0.10455233 1.0285443 31352486
-0.058363535 0.10668773 1.0111684 20340382
-0.09622591 0.10335517 1.0248804 20340382
-0.097753711 0.10296942 1.0259953 20340382
-0.11138768 0.10679223 1.0197074 20340382
-0.11773526 0.10778423 1.0185407 20340382
-0.11864179 0.1070364 1.0203619 20340382
-0.13091432 0.11120292 1.013081 20340382
-0.15337224 0.11694933 1.0039542 20340382
-0.15659751 0.11613495 1.0063077 20340382
-0.15821014 0.11572774 1.0074847 20340382
-0.16567607 0.10969118 1.0222107 20340382
-0.16387115 0.10755216 1.0266926 31352486
-0.16273309 0.10576368 1.0305012 31352486
0.009524649 0.125642 0.96221703 20340382
0.0080156457 0.12526098 0.96331811 20340382
-0.052014463 0.10593725 1.016397 20340382
-0.054119669 0.1059265 1.0167743 20340382
-0.063459702 0.10513073 1.0201123 20340382
-0.078876615 0.10280061 1.0278851 20340382
-0.085061081 0.10384323 1.0266024 20340382
-0.085305378 0.10273989 1.029099 20340382
-0.088091671 0.10307803 1.028814 20340382
-0.088968359 0.10233584 1.0306127 20340382
-0.091122247 0.10231283 1.0310253 20340382
-0.10170879 0.10328564 1.0306365 20340382
-0.10193894 0.10218591 1.0331229 20340382
-0.12373527 0.10918243 1.0212084 20340382
-0.13185498 0.11234064 1.0155421 20340382
-0.14583309 0.116103 1.0095142 20340382
-0.14903006 0.11529573 1.0118471 20340382
-0.15129398 0.11524501 1.0123398 20340382
-0.1522271 0.11448853 1.0141801 20340382
-0.15449412 0.11443695 1.0146753 20340382
-0.15676413 0.11438455 1.0151727 20340382
-0.15836586 0.11398017 1.0163414 20340382
-0.16252773 0.10876273 1.0286516 20340382
-0.16138656 0.10696752 1.0324553 31352486
-0.15954863 0.10482744 1.0369101 20340382
0.0090774279 0.12629665 0.96544921 20340382
-0.034662835 0.11263902 1.0031605 28502698
-0.076371081 0.10315345 1.0312791 20340382
-0.082145616 0.10274089 1.0331758 20340382
-0.11655576 0.10712061 1.0293223 20340382
-0.13082002 0.11240525 1.0200362 20340382
-0.13634472 0.11414667 1.0171163 20340382
-0.13990606 0.11481549 1.0162398 20340382
-0.14149041 0.11441547 1.0173959 20340382
-0.1437387 0.1143706 1.0178778 20340382
-0.14332865 0.11290597 1.0210543 20340382
-0.14624362 0.11321529 1.0208644 20340382
-0.15008251 0.11276881 1.0225072 20340382
-0.15166847 0.11236838 1.0236645 20340382
-0.15484037 0.11156747 1.0259792 20340382
-0.16027777 0.11071736 1.0287883 20340382
-0.15982215 0.10926421 1.0319315 20340382
-0.15867464 0.10746306 1.0357283 20340382
-0.15614615 0.10496522 1.0408344 20340382
-0.073865466 0.10349131 1.0346682 20340382
-0.12689342 0.11213566 1.024731 20340382
-0.13043146 0.11281613 1.0238391 20340382
-0.13397893 0.11349425 1.0229539 20340382
-0.13488698 0.11274037 1.0247747 20340382
-0.13711943 0.11270135 1.0252457 20340382
-0.14608072 0.11253712 1.0271531 20340382
-0.14832886 0.11249404 1.0276359 20340382
-0.14923379 0.11174094 1.0294541 20340382
-0.14946082 0.11063445 1.0319357 20340382
-0.15103416 0.11023711 1.0330838 20340382
-0.15418096 0.10944264 1.0353801 31352486
-0.15186681 0.1058301 1.0429548 20340382
-0.15069091 0.1040286 1.0467281 20340382
0.007246865 0.12682055 0.9737466 20340382
-0.027636753 0.11169478 1.01309 28502698
-0.12099404 0.11076204 1.0314509 20340382
-0.12715431 0.11289208 1.027845 20340382
-0.1293727 0.1128585 1.0283065 20340382
-0.13338515 0.11131886 1.0323918 20340382
-0.13494277 0.11092557 1.0335284 20340382
-0.14252006 0.11006538 1.036743 20340382
-0.14340611 0.10931516 1.0385472 20340382
-0.14361265 0.10821003 1.0410123 20340382
-0.14381291 0.10710646 1.0434732 20340382
-0.14400688 0.10600448 1.0459293 20340382
-0.14351356 0.10454963 1.0490412 20340382
-0.10765808 0.10647678 1.0431435 20340382
-0.12124061 0.11150135 1.0345476 20340382
-0.12278415 0.11111163 1.035674 20340382
-0.12454373 0.10961062 1.0392715 20340382
-0.12674946 0.10958203 1.0397243 20340382
-0.13095932 0.1106326 1.0381695 20340382
-0.13472593 0.11020993 1.0397614 20340382
-0.13560407 0.10945982 1.041559 20340382
-0.10919423 0.10791325 1.0448567 20340382
-0.11553458 0.10896372 1.043703 20340382
-0.12147634 0.098979183 1.0665364 18073447
0.0038482454 0.11927665 1.0085909 16972474
0.0023910385 0.11890876 1.0096545 16972474
0.0020668563 0.11775879 1.0122007 16972474
0.0011808779 0.11700109 1.0140021 16972474
-0.0013037566 0.1541124 0.96165562 20340382
0.0055562165 0.14619176 0.98140925 23903292
0.0078927483 0.14295104 0.98775822 23903292
0.0061630066 0.14068639 1.0056946 27336189
0.0063729119 0.13908067 1.0089877 27336189
0.005100986 0.14060232 1.0144992 27336189
-0.001505876 0.17268853 1.0010588 20405115
-0.0013250206 0.17099623 1.0043472 20405115
-0.0022160504 0.16732708 1.0158336 20405115
-0.002558114 0.16607827 1.0183624 20405115
-0.0028939638 0.16483109 1.0208865 20405115
-0.0032234509 0.16358542 1.0234061 20405115
-0.0035466794 0.16234142 1.0259211 20405115
-0.0038636569 0.16109894 1.0284315 20405115
-0.0038091261 0.16577899 1.0232655 20405115
-0.004133882 0.16453075 1.0257803 20405115
-0.005024137 0.16372293 1.0275689 20405115
-0.0082281772 0.17819656 1.0242432 20405115
-0.013647767 0.20076153 0.99877799 17555327
-0.011242868 0.184514 1.0287417 20405115
-0.013499709 0.2008099 1.0026585 17555327
-0.012199434 0.19811895 1.0073705 17555327
-0.012192214 0.19508229 1.017005 20405115
-0.012546444 0.19378142 1.0195264 20405115
-0.013235921 0.19118442 1.0245559 20405115
-0.012776861 0.19733454 1.0168827 20405115
-0.013482073 0.19472608 1.0219209 20405115
-0.019857163 0.2137735 1.0080436 16777216
-0.019861648 0.21064334 1.017657 20405115
-0.0062217508 -0.13178335 0.89584458 24356679
-0.013985531 -0.13070573 0.88964188 24356679
-0.0085837264 -0.13016184 0.89339936 24356679
-0.0051259864 -0.12974201 0.89479935 24356679
-0.012900585 -0.12868474 0.88860708 24356679
-0.0094542969 -0.1282611 0.89001292 24356679
-0.026491692 -0.12806956 0.87534606 24356679
-0.016392151 -0.12698957 0.88210213 24356679
-0.040784605 -0.12774311 0.8637377 24356679
-0.038062043 -0.12736964 0.86440456 24356679
-0.034032814 -0.12689912 0.86663401 24356679
-0.028686943 -0.12632988 0.87041998 24356679
-0.023321209 -0.12575662 0.87419337 24356679
-0.041814178 -0.1261286 0.86286026 24356679
-0.041037887 -0.12589985 0.8611747 24356679
-0.037016928 -0.12542298 0.86340797 24356679
-0.031680442 -0.12484331 0.86719739 24356679
-0.025671197 -0.12420942 0.87175542 24356679
-0.041688681 -0.12459284 0.86602837 24356679
-0.038050309 -0.1238072 0.86253226 24356679
-0.032718055 -0.12321629 0.86632222 24356679
-0.025408627 -0.12246445 0.8724429 24356679
-0.041155636 -0.12252696 0.8617748 24356679
-0.037785374 -0.1220879 0.86322308 24356679
-0.032454103 -0.12148518 0.86701143 24356679
-0.023843179 -0.1206071 0.87469196 24356679
-0.032191083 -0.11975015 0.86770022 24356679
-0.025537884 -0.11901915 0.87303603 24356679
-0.037398189 -0.11880339 0.86707854 24356679
-0.033877283 -0.11818466 0.86604327 24356679
-0.029184325 -0.11761332 0.86903787 24356679
-0.038290516 -0.11702591 0.86372858 24356679
-0.036859676 -0.1167465 0.86282343 24356679
-0.03477826 -0.11640694 0.86269855 24356679
-0.03996893 -0.11547913 0.86207074 24356679
-0.039838612 -0.11532357 0.85960418 24356679
-0.038414329 -0.11504551 0.85870314 24356679
-0.041645601 -0.11394005 0.86041337 24356679
-0.042165808 -0.11385266 0.85716736 24356679
-0.04204604 -0.11370334 0.85470849 24356679
-0.04202842 -0.11227829 0.86032122 24356679
-0.042547271 -0.11219675 0.85707587 24356679
-0.043075971 -0.11211713 0.8538366 24356679
-0.04176566 -0.11054944 0.86101151 24356679
-0.042281501 -0.1104733 0.85776532 24356679
-0.094837867 -0.12276443 0.96926033 19757529
-0.094945483 -0.12261461 0.96575689 19757529
-0.09461052 -0.1210742 0.97351778 19757529
-0.093073957 -0.12077402 0.97254539 19757529
-0.094264485 -0.12073197 0.96734828 19757529
-0.03669057 -0.11129933 0.97019076 25522641
-0.033930793 -0.1108702 0.97082454 25522641
-0.099418901 -0.1207746 0.99047631 19757529
-0.095239006 -0.12006404 0.99021083 19757529
-0.093679331 -0.11975931 0.9892236 19757529
-0.08960674 -0.11875229 0.98188794 19757529
-0.090770379 -0.118715 0.97667545 19757529
-0.092495397 -0.11873444 0.97062886 19757529
-0.093146913 -0.11865009 0.96628243 19757529
-0.034606241 -0.10933255 0.97682816 25522641
-0.034184448 -0.10914428 0.97418183 25522641
-0.031417131 -0.10870966 0.9748103 25522641
-0.095125414 -0.11819078 0.99096179 19757529
-0.093563922 -0.11788584 0.9899739 19757529
-0.08894182 -0.11683033 0.98348123 19757529
-0.090642653 -0.11685724 0.97742152 19757529
-0.091818847 -0.11683247 0.97221917 19757529
-0.093011677 -0.11681094 0.96702719 19757529
-0.031682618 -0.10696989 0.97817189 25522641
-0.029495539 -0.10659365 0.97797734 25522641
-0.089785732 -0.11534173 0.98959464 19757529
-0.089973517 -0.11493852 0.97901297 19757529
-0.090600118 -0.11486533 0.9746536 19757529
-0.091785647 -0.11485253 0.96945906 19757529
-0.028751759 -0.10459379 0.97950864 25522641
-0.089306124 -0.11301204 0.98060381 19757529
-0.089927554 -0.11294603 0.9762429 19757529
-0.09110757 -0.11294216 0.97104686 19757529
-0.091757156 -0.11288157 0.96670365 19757529
-0.094507925 -0.10249126 0.97577661 19757529
-0.042230472 -0.093288571 0.97709733 25522641
-0.095870644 -0.1010047 0.98101974 19757529
-0.095930867 -0.10091827 0.97750026 19757529
-0.095462047 -0.10076118 0.97483188 19757529
-0.098428346 -0.099489495 0.97753191 19757529
-0.098493829 -0.099410102 0.97401708 19757529
-0.096953914 -0.099109344 0.97304267 19757529
-0.095953993 -0.098883331 0.97122461 19757529
-0.099378251 -0.097762622 0.97658551 19757529
-0.098907784 -0.097613283 0.97391742 19757529
-0.096291803 -0.097159721 0.97463238 19757529
-0.094748542 -0.09685833 0.97365588 19757529
-0.086150587 -0.095064193 0.96347517 19757529
-0.084060989 -0.094684765 0.96333796 19757529
-0.083077207 -0.094463915 0.96153039 19757529
-0.10086172 -0.096117184 0.9747923 19757529
-0.099321693 -0.095816448 0.97381794 19757529
-0.096169062 -0.095280722 0.97537696 19757529
-0.091997504 -0.094519362 0.97510684 19757529
-0.087001994 -0.093410209 0.96602255 19757529
-0.08491125 -0.093028575 0.96588421 19757529
-0.08392211 -0.092808634 0.96407366 19757529
-0.10834069 -0.065550901 0.98987246 23255706
-0.1077249 -0.063505456 0.99147117 23255706
-0.10563889 -0.063088387 0.99132878 23255706
-0.16021729 0.10018212 1.0407389 31352486
-0.044363633 0.13162348 0.94686127 20340382
-0.046712063 0.12761562 0.92779905 20340382
-0.045711592 0.12761386 0.92602438 20340382
-0.042390987 0.12885393 0.92734802 20340382
-0.040225498 0.12947407 0.92711943 20340382
-0.061560772 0.12883262 0.94937718 20340382
-0.056855999 0.12915398 0.94297636 20340382
-0.05469922 0.12977442 0.94275296 20340382
-0.054801144 0.12915695 0.93939406 20340382
-0.054345958 0.12884749 0.93682337 20340382
-0.053897262 0.12853672 0.93425727 20340382
-0.053455248 0.12822467 0.93169528 20340382
-0.053019725 0.12791127 0.92913741 20340382
-0.053738572 0.12697414 0.92502749 20340382
-0.054470502 0.12603429 0.92092621 20340382
-0.052907407 0.12633964 0.9199369 20340382
-0.050765686 0.12695725 0.91972256 20340382
-0.065269217 0.12603238 0.92853284 20340382
-0.065964609 0.1250916 0.92440993 20340382
-0.064553477 0.12476363 0.92009443 20340382
-0.06243021 0.12537959 0.91989166 20340382
-0.061447039 0.1253704 0.91812879 20340382
-0.059893817 0.12567373 0.91714609 20340382
-0.083380826 0.1248092 0.94190681 20340382
-0.07918141 0.12258101 0.92214352 20340382
-0.077214248 0.12255874 0.9186179 20340382
-0.069921769 0.12438958 0.91628432 20340382
-0.094026685 0.12135791 0.93003488 20340382
-0.092485122 0.121659 0.92905933 20340382
-0.090943523 0.12196013 0.92808384 20340382
-0.084186159 0.12122753 0.91240782 20340382
-0.08154273 0.12215439 0.91301501 20340382
-0.11771782 0.11550148 0.92756945 20340382
-0.11620096 0.11579768 0.92660969 20340382
-0.11415682 0.11640423 0.92645591 20340382
-0.10434531 0.11977141 0.92822486 20340382
-0.1028153 0.12007026 0.92725658 20340382
-0.10182249 0.12005693 0.92548883 20340382
-0.10083307 0.12004291 0.92372298 20340382
-0.095817231 0.12060811 0.91826993 20340382
-0.093746521 0.12121975 0.9180994 20340382
-0.10605527 0.13789389 0.91513777 20340382
-0.10400111 0.13852459 0.91497332 20340382
-0.10194374 0.13915594 0.91480672 20340382
-0.10042529 0.13945255 0.91384584 20340382
-0.09890677 0.13974902 0.91288513 20340382
-0.096842721 0.14038168 0.91271442 20340382
-0.067144722 0.15289642 0.91739988 20340382
-0.046160378 0.17227146 0.92948925 20340382
-0.10774424 0.17026371 0.92406535 20340382
-0.15339561 0.23650786 1.0080738 20340382
-0.1528105 0.23243317 0.9931764 20340382
-0.15143098 0.23141383 0.98783332 20340382
-0.15028872 0.23131458 0.98599309 20340382
-0.14961378 0.23080198 0.98333126 20340382
-0.14556859 0.22998092 0.97518402 20340382
-0.17071103 0.23965584 1.0342869 20340382
-0.169484 0.23957121 1.0323935 20340382
-0.16782998 0.23989433 1.0313466 20340382
-0.16617595 0.24021737 1.0303 20340382
-0.16495557 0.24013153 1.0284107 20340382
-0.16330306 0.24045426 1.0273652 20340382
-0.15790536 0.24183267 1.025067 20340382
-0.1486533 0.23391265 0.98569894 20340382
-0.14010809 0.23266348 0.97023815 20340382
-0.13851851 0.23297398 0.96923232 20340382
-0.17781027 0.23898306 1.0339233 20340382
-0.17616113 0.23930514 1.0328799 20340382
-0.17408688 0.24003655 1.0326842 20340382
-0.16548704 0.24073748 1.0238923 20340382
-0.15966977 0.24252617 1.0224447 20340382
-0.15846215 0.24243581 1.020564 20340382
-0.15236746 0.23971115 1.0033066 20340382
-0.15210427 0.23878379 0.99979013 20340382
-0.1511493 0.237339 0.99360228 20340382
-0.14999472 0.23723827 0.99175483 20340382
-0.14815836 0.23661813 0.98724288 20340382
-0.14701535 0.23651513 0.98540276 20340382
-0.14587563 0.23641153 0.98356473 20340382
-0.14454536 0.23536627 0.97825623 20340382
-0.14294751 0.23567833 0.97724515 20340382
-0.13910644 0.23577601 0.97258145 20340382
-0.17871891 0.23917504 1.0285298 20340382
-0.17501107 0.24022754 1.0272998 20340382
-0.171726 0.24086909 1.0252211 20340382
-0.17051466 0.24077746 1.0233382 20340382
-0.16887373 0.24109785 1.0222999 20340382
-0.16723301 0.24141845 1.0212617 20340382
-0.16559209 0.24173892 1.0202233 20340382
-0.16351344 0.24247316 1.0200243 20340382
-0.16143139 0.2432081 1.0198234 20340382
-0.16022839 0.24311475 1.0179458 20340382
-0.1585858 0.24343556 1.0169065 20340382
-0.15738785 0.24334134 1.0150319 20340382
-0.15208615 0.24109416 1.000514 20340382
-0.15066792 0.24005803 0.9951514 20340382
-0.14950962 0.23995596 0.99330211 20340382
-0.14835446 0.23985326 0.99145502 20340382
-0.14423475 0.23901653 0.98326653 20340382
-0.1424353 0.2383832 0.97877854 20340382
-0.14130662 0.23827548 0.97694808 20340382
-0.14018127 0.23816688 0.97511983 20340382
-0.13586693 0.23868136 0.97127336 20340382
-0.13475151 0.23857091 0.96945137 20340382
-0.17509234 0.24122354 1.0236179 20340382
-0.17388381 0.24112925 1.0217373 20340382
-0.17267869 0.24103436 1.0198587 20340382
-0.17104444 0.24135357 1.0188247 20340382
-0.16570447 0.24272685 1.0165612 20340382
-0.16406853 0.24304639 1.0155263 20340382
-0.16243257 0.24336587 1.0144912 20340382
-0.16079666 0.24368536 1.013456 20340382
-0.15960471 0.24358791 1.011586 20340382
-0.1518095 0.24246818 0.99772567 20340382
-0.15064564 0.24236518 0.99587333 20340382
-0.14948516 0.24226156 0.99402314 20340382
-0.1478675 0.24257757 0.99299943 20340382
-0.14717409 0.24205226 0.99032897 20340382
-0.14648734 0.24152584 0.98766243 20340382
-0.1448763 0.24184057 0.98664296 20340382
-0.17440893 0.24169216 1.017223 20340382
-0.17158394 0.24191155 1.01432 20340382
-0.16995628 0.24222951 1.0132903 20340382
-0.16300389 0.2439197 1.0100064 20340382
-0.16137463 0.24423799 1.0089755 20340382
-0.15974531 0.24455619 1.0079447 20340382
-0.17375417 0.24213502 1.0108504 20340382
-0.17213304 0.24245149 1.0098251 20340382
-0.17007558 0.24318779 1.0096381 20340382
-0.16801475 0.24392453 1.0094494 20340382
-0.16639052 0.24424192 1.0084213 20340382
-0.16476622 0.24455911 1.0073936 20340382
-0.17753522 0.2420278 1.0084034 20340382
-0.1722559 0.24339516 1.0061775 20340382
-0.16579169 0.24465767 1.0020872 20340382
-0.16255967 0.24528897 1.0000423 20340382
-0.16799496 0.24484441 0.99864441 20340382
-0.14661887 0.24928001 0.97917068 20340382
-0.13653542 0.25158989 0.97390407 20340382
-0.087225705 -0.14895183 0.86041123 23773826
-0.089225069 -0.14915586 0.85988468 23773826
-0.039061487 -0.12733719 0.83641917 27206467
-0.04386723 -0.12711868 0.84240961 27206467
-0.050846055 -0.12923522 0.84799695 27206467
-0.073938251 -0.13450223 0.86779237 27206467
-0.032879531 -0.11017246 0.82813263 27789320
-0.037429035 -0.11139203 0.83057231 27789320
-0.08043626 -0.11243873 0.80993825 30704644
-0.07644549 -0.11903708 0.8577351 27206467
-0.07864818 -0.10954869 0.80730665 30704644
-0.082361862 -0.10840382 0.80889326 30704644
-0.085554346 -0.10914447 0.80991173 30704644
-0.06893383 -0.11367547 0.85747063 27206467
-0.083780602 -0.10624308 0.80727261 30704644
-0.037702337 -0.089426793 0.836752 18008714
-0.026243672 -0.10691592 0.96753329 25522641
-0.02534233 -0.10518749 0.96936721 25522641
-0.02739276 -0.10544182 0.96876365 25522641
-0.083175108 -0.11351021 0.9663114 19757529
-0.088105097 -0.1137978 0.97189814 19757529
-0.032056317 -0.089788675 0.98211557 25522641
-0.036130086 -0.090334423 0.9809137 25522641
-0.037939981 -0.089194231 0.98281842 25522641
-0.04197225 -0.090360828 0.98428875 25522641
-0.03704913 -0.087485738 0.98463124 25522641
-0.039747909 -0.088061348 0.98472089 25522641
-0.04444243 -0.089534454 0.98687929 25522641
-0.047790974 -0.09040945 0.9876731 25522641
-0.03685008 -0.085453853 0.98447651 25522641
-0.03888151 -0.085732333 0.98387808 25522641
-0.04357639 -0.087214507 0.98603088 25522641
-0.046926215 -0.088095017 0.98682016 25522641
-0.085300505 -0.05970373 0.83360225 29020818
-0.086779162 -0.059679382 0.83220905 29020818
-0.07287544 -0.058169372 0.87313765 31287753
-0.080227286 -0.054156736 0.8758657 31287753
-0.078925774 -0.050848063 0.88046408 31287753
-0.081955567 -0.04747548 0.88097751 31287753
-0.079246208 -0.044693038 0.88065249 31287753
-0.078210592 -0.040710613 0.88239568 31287753
-0.079799876 -0.037359871 0.88426739 31287753
-0.079712704 -0.035187393 0.88408619 31287753
-0.081746727 -0.035496749 0.8834672 31287753
-0.093305632 0.070920445 0.93853694 23838559
-0.093803659 0.072752476 0.9390977 23838559
-0.09595041 0.075522743 0.94160241 27271200
-0.14712365 0.11307953 0.96632105 20340382
-0.12619899 0.12013289 0.97380966 20340382
-0.1276022 0.12015601 0.97248715 20340382
-0.13011663 0.11917166 0.97252148 20340382
-0.13151692 0.11919475 0.97120208 20340382
-0.13291739 0.11921779 0.96988231 20340382
-0.1359715 0.11772934 0.9706102 20340382
-0.13901649 0.11624081 0.9713462 20340382
-0.14150526 0.11525593 0.97140521 20340382
-0.1461748 0.11225543 0.97421592 20340382
-0.15328632 0.1082694 0.97712892 20340382
-0.15872912 0.10579442 0.97800952 20340382
-0.11348261 0.12221429 0.98559362 20340382
-0.11488762 0.12223751 0.98427004 20340382
-0.12557952 0.11778099 0.98500222 20340382
-0.12921999 0.11578203 0.9863748 20340382
-0.13228823 0.1142884 0.98708612 20340382
-0.13505183 0.11433388 0.98448223 20340382
-0.13754617 0.1133455 0.98453313 20340382
-0.13892518 0.11336828 0.98323399 20340382
-0.14141081 0.11237971 0.98329324 20340382
-0.14389102 0.11139113 0.98335773 20340382
-0.15048139 0.10789656 0.98555309 20340382
-0.15294005 0.10690758 0.98563844 20340382
-0.15539254 0.10591853 0.9857288 20340382
-0.15729468 0.10543511 0.9851374 20340382
-0.11803736 0.11786867 0.99670249 20340382
-0.12309395 0.11588565 0.99673718 20340382
-0.12447546 0.11590839 0.99543518 20340382
-0.13394396 0.11244858 0.99491125 20340382
-0.13812406 0.1099345 0.99697131 20340382
-0.14172961 0.10792772 0.99837285 20340382
-0.14532326 0.10592071 0.99978536 20340382
-0.14723365 0.10543557 0.99918526 20340382
-0.15025274 0.10393559 0.99993962 20340382
-0.15215425 0.10345034 0.99934775 20340382
-0.15405275 0.10296506 0.99875838 20340382
-0.15484558 0.10349474 0.99681205 20340382
-0.155641 0.10402433 0.9948625 20340382
-0.15643917 0.10455412 0.99291056 20340382
-0.13688941 0.10697555 1.0098979 20340382
-0.15360709 0.1005118 1.0097287 20340382
-0.15605344 0.099515423 1.0098207 20340382
-0.15682755 0.10004652 1.0078926 20340382
-0.15815894 0.10006839 1.0066381 20340382
-0.1486346 0.097016692 1.0318754 31352486
-0.14994834 0.097038306 1.030637 31352486
-0.14555399 0.23754096 1.0008225 20340382
-0.14731337 0.23100799 1.0237961 20340382
-0.14635007 0.23540121 1.0167534 20340382
-0.14615135 0.23728737 1.0135336 20340382
-0.14542727 0.23979509 1.0096729 20340382
-0.14894588 0.24480414 1.0016968 20340382
-0.1505933 0.24021819 1.033334 20340382
-0.16165836 0.24280295 1.0227733 20340382
-0.17470612 0.2391566 1.0411108 20340382
0.03528665 -0.14039403 0.9141739 25587374
0.035938516 -0.14050108 0.91609901 25587374
0.034825489 -0.14106932 0.92051429 25587374
0.034899965 -0.14132965 0.92327899 25587374
0.035971329 -0.13884476 0.91599137 25587374
-0.010106221 -0.13639084 0.90173084 24356679
-0.048606917 -0.13398907 0.84331906 27206467
0.00064621866 -0.13321441 0.89894873 31935339
-0.084019437 -0.13837105 0.86584735 27206467
-0.079318047 -0.13784105 0.8659538 27206467
-0.060772181 -0.13443574 0.85131735 27206467
-0.055354357 -0.13352565 0.84801114 27206467
-0.011911094 -0.13365811 0.90659946 24356679
-0.078587815 -0.13596565 0.86510754 27206467
-0.071035877 -0.1346398 0.85964179 27206467
-0.062817857 -0.13317321 0.85341626 27206467
-0.057396024 -0.13227484 0.850115 27206467
-0.080551654 -0.13442303 0.86457855 23773826
-0.076465234 -0.13381422 0.86279458 27206467
-0.080421567 -0.13246229 0.86185449 23773826
-0.079122528 -0.13241351 0.86300182 27206467
-0.075735405 -0.13195068 0.86194897 27206467
0.018559709 -0.1309765 0.97621745 19822262
0.015890792 -0.13185948 0.98329645 19822262
-0.076892897 -0.13005218 0.85808921 27206467
-0.074903488 -0.12986755 0.85849792 27206467
0.016512409 -0.12917583 0.97291607 19822262
0.014586791 -0.13012689 0.98199767 19822262
-0.076749966 -0.12811273 0.85537857 27206467
-0.07476218 -0.1279301 0.85578609 27206467
-0.072080225 -0.12761356 0.85545933 27206467
0.018849298 -0.12689078 0.96944362 19822262
-0.071932957 -0.12568778 0.85275346 27206467
-0.069954336 -0.12550758 0.85315329 27206467
0.018308654 -0.12525904 0.97016853 19822262
-0.074581236 -0.12429068 0.85296881 27206467
-0.070501849 -0.12372173 0.8511821 27206467
-0.068526164 -0.12354342 0.85157949 27206467
0.020902708 -0.1224665 0.96018893 22089197
-0.070468351 -0.12201981 0.8510716 27206467
-0.067098215 -0.12158736 0.8500064 27206467
-0.063736826 -0.12115521 0.84893316 27206467
0.022094056 -0.12047574 0.95840269 22089197
-0.070434526 -0.12031791 0.85096091 27206467
-0.068458945 -0.12014379 0.85135859 27206467
-0.064399049 -0.11959129 0.84955591 27206467
0.022560909 -0.11842023 0.95463091 22089197
0.020393267 -0.11910138 0.96079868 22089197
-0.075880051 -0.11940995 0.85409242 27206467
-0.07109946 -0.11874031 0.85158008 27206467
-0.068425268 -0.11844388 0.8512482 27206467
-0.06506145 -0.1180235 0.8501783 27206467
0.024780497 -0.11601671 0.94836754 22089197
-0.0087424368 -0.11211623 0.91833943 18656300
-0.006830737 -0.11195231 0.9186812 18656300
-0.0038949847 -0.10841255 0.89555579 28437965
-0.014905289 -0.11152812 0.9262163 18656300
-0.012979105 -0.11136563 0.92657119 18656300
-0.0070047081 -0.107289 0.89940065 28437965
-0.0076151192 -0.10757618 0.90289944 28437965
-0.031086937 -0.11251026 0.94408637 22024208
-0.042357266 -0.11252408 0.95551938 18591567
-0.043826252 -0.10419858 0.84911352 24356679
-0.060108289 -0.10763479 0.96883696 16777216
-0.018754885 -0.096900739 0.87608302 28437965
-0.018145129 -0.09695404 0.87796658 28437965
-0.018759385 -0.095376514 0.87863058 28437965
0.022889659 -0.096408576 0.96247691 23320439
-0.056194067 -0.096552417 0.8723287 31287753
-0.021284908 -0.093939103 0.87895137 28437965
-0.020021409 -0.093891613 0.88006693 28437965
-0.021342561 -0.094230331 0.88427913 28437965
-0.019988328 -0.092209585 0.8799578 28437965
-0.020663023 -0.092445768 0.88339531 28437965
-0.025761858 -0.091224007 0.88413113 28437965
-0.021275669 -0.090850376 0.88405955 28437965
-0.022584364 -0.091172822 0.88828111 28437965
-0.0080019981 -0.092907302 0.98166722 25522641
-0.00039176643 -0.09268748 0.98973137 25522641
-0.013642505 -0.091625847 0.98325628 25522641
-0.0097254962 -0.091349863 0.98402756 25522641
-0.0077715367 -0.091212064 0.98440903 25522641
-0.004454121 -0.091022991 0.98599452 25522641
-0.034067392 -0.087762095 0.90459782 31870606
-0.038307533 -0.091289483 0.97342008 25522641
-0.015762463 -0.090254687 0.98929709 25522641
-0.013208225 -0.090033874 0.98886448 25522641
-0.0094904453 -0.089644589 0.9867726 25522641
-0.0075346977 -0.089508697 0.98715562 25522641
-0.0067463368 -0.089541428 0.98919564 25522641
-0.061151385 -0.086440392 0.86710131 31287753
-0.0053656846 -0.086275287 0.95935994 19239409
-0.0039925724 -0.084443986 0.96042567 19239409
-0.030239537 -0.085231498 0.97471482 25522641
-0.028257266 -0.085100494 0.97512192 25522641
-0.01275681 -0.083445378 0.96328622 19239409
-0.0052950829 -0.082713246 0.95912844 19239409
-0.058241993 -0.080855034 0.8611865 31287753
-0.032188192 -0.08352419 0.97418576 25522641
-0.0070457608 -0.081162825 0.96146554 19239409
-0.014635161 -0.079977483 0.9626742 19239409
-0.034877464 -0.079951279 0.97150797 25522641
-0.028751031 -0.079670377 0.97557515 25522641
-0.0069749504 -0.077588946 0.9612332 19239409
-0.035612032 -0.07809329 0.96936506 25522641
-0.028112158 -0.077762805 0.97464496 25522641
-0.031869873 -0.076257229 0.97654575 25522641
-0.031076789 -0.073628709 0.95427388 26105494
-0.0094043761 -0.07241264 0.96133059 19239409
-0.070952058 -0.071829848 0.87193644 31287753
-0.009368822 -0.070621699 0.96121436 19239409
-0.070917875 -0.07009051 0.87182337 31287753
-0.071567461 -0.068415314 0.87244815 31287753
-0.069542438 -0.066562414 0.87275112 31287753
-0.0096933991 -0.065045185 0.95243448 19239409
-0.0083568841 -0.064994946 0.95361465 19239409
-0.0721827 -0.06499292 0.87295914 31287753
-0.067520261 -0.064713493 0.8730517 31287753
-0.072832122 -0.063307889 0.87358338 31287753
-0.070838422 -0.063200258 0.8740024 31287753
-0.069528967 -0.063151032 0.87515885 31287753
-0.038513958 -0.062409945 0.9199844 22672853
-0.010223731 -0.061542455 0.95301419 19239409
0.026182845 -0.059323095 0.95028716 22737586
-0.071486309 -0.061513186 0.87462777 31287753
-0.07017529 -0.0614639 0.87578547 31287753
-0.013333127 -0.059971854 0.95414537 19239409
-0.011990681 -0.05992141 0.95533079 19239409
-0.071451992 -0.05976779 0.87451422 31287753
-0.021922156 -0.057387866 0.89411229 16777216
-0.049269423 -0.060917702 0.98663515 30186524
-0.051504388 -0.061174318 0.99270791 30186524
-0.013899818 -0.058236338 0.95483857 22672853
-0.012555972 -0.058185827 0.95602518 22672853
-0.0714176 -0.058022439 0.87440079 31287753
-0.069425225 -0.057920758 0.87481898 31287753
0.029038265 -0.054084435 0.95506257 22737586
-0.072065264 -0.056327559 0.87502557 31287753
-0.070071906 -0.056227796 0.87544519 31287753
-0.012339637 -0.05465208 0.95860285 22672853
0.033954456 -0.052068193 0.95389789 22737586
0.037679747 -0.051878534 0.95450622 22737586
0.036322281 -0.052103158 0.96269244 22737586
0.034717098 -0.050338008 0.95576948 22737586
0.03601478 -0.050289255 0.95691544 22737586
0.037312493 -0.050240386 0.95806128 22737586
0.00063680112 -0.045504674 0.99612063 26753080
-0.0020801574 -0.043775756 0.99357051 26753080
-0.00070352852 -0.043723945 0.99478585 26753080
0.00067298114 -0.043672215 0.99600142 26753080
-0.0087117702 -0.042215921 0.99024242 26753080
-0.0039967149 -0.04202763 0.99306625 26753080
-0.002618745 -0.041975886 0.99428326 26753080
-0.0012407452 -0.041924085 0.99550003 26753080
-0.0080945939 -0.040348727 0.98929673 26753080
-0.0067166835 -0.040296905 0.9905135 26753080
-0.0074772686 -0.038485397 0.98835117 26753080
-0.0046881884 -0.036549516 0.99066323 26753080
-0.0054489821 -0.034743939 0.98850125 26753080
-0.15708642 0.089457676 1.0286176 31352486
-0.11195721 0.083412692 0.9606747 16907741
-0.1342576 0.11195805 1.0135245 20340382
