ply
format ascii 1.0
comment Created by Open3D
obj_info Generated by CloudCompare!
element vertex 1393
property float x
property float y
property float z
property uchar red
property uchar green
property uchar blue
end_header
-0.176977 0.409932 0.642393 0 0 0 
-0.175603 0.409784 0.642704 0 0 0 
-0.174229 0.409637 0.643016 0 0 0 
-0.172386 0.408911 0.642463 0 0 0 
-0.171014 0.408764 0.642774 0 0 0 
-0.170107 0.409196 0.643949 0 0 0 
-0.169661 0.410206 0.645992 0 0 0 
-0.167821 0.409480 0.645438 0 0 0 
-0.166905 0.409911 0.646616 0 0 0 
-0.165986 0.410342 0.647795 0 0 0 
-0.164150 0.409616 0.647240 0 0 0 
-0.162772 0.409469 0.647553 0 0 0 
-0.161394 0.409321 0.647865 0 0 0 
-0.160016 0.409174 0.648177 0 0 0 
-0.158190 0.408449 0.647620 0 0 0 
-0.157260 0.408879 0.648801 0 0 0 
-0.155882 0.408731 0.649113 0 0 0 
-0.154947 0.409160 0.650296 0 0 0 
-0.153127 0.408436 0.649738 0 0 0 
-0.152626 0.409441 0.651792 0 0 0 
-0.151245 0.409293 0.652105 0 0 0 
-0.150298 0.409721 0.653290 0 0 0 
-0.148481 0.408997 0.652731 0 0 0 
-0.147962 0.410000 0.654790 0 0 0 
-0.146147 0.409276 0.654231 0 0 0 
-0.144763 0.409128 0.654544 0 0 0 
-0.143380 0.408980 0.654858 0 0 0 
-0.142420 0.409406 0.656046 0 0 0 
-0.141034 0.409258 0.656360 0 0 0 
-0.139648 0.409109 0.656674 0 0 0 
-0.138263 0.408961 0.656988 0 0 0 
-0.137293 0.409386 0.658178 0 0 0 
-0.135905 0.409238 0.658492 0 0 0 
-0.134106 0.408516 0.657929 0 0 0 
-0.133130 0.408941 0.659121 0 0 0 
-0.132151 0.409365 0.660313 0 0 0 
-0.130762 0.409216 0.660628 0 0 0 
-0.128968 0.408495 0.660064 0 0 0 
-0.127983 0.408919 0.661258 0 0 0 
-0.126593 0.408770 0.661573 0 0 0 
-0.125204 0.408621 0.661887 0 0 0 
-0.124211 0.409044 0.663083 0 0 0 
-0.122820 0.408895 0.663398 0 0 0 
-0.121428 0.408746 0.663713 0 0 0 
-0.120037 0.408597 0.664029 0 0 0 
-0.119423 0.409590 0.666109 0 0 0 
-0.117641 0.408870 0.665542 0 0 0 
-0.116248 0.408720 0.665858 0 0 0 
-0.114472 0.408001 0.665290 0 0 0 
-0.113080 0.407852 0.665605 0 0 0 
-0.111310 0.407133 0.665035 0 0 0 
-0.109920 0.406985 0.665350 0 0 0 
-0.108156 0.406266 0.664779 0 0 0 
-0.106395 0.405549 0.664208 0 0 0 
-0.103152 0.402555 0.660090 0 0 0 
-0.099928 0.399564 0.655968 0 0 0 
-0.092679 0.390321 0.642082 0 0 0 
-0.024783 0.286741 0.480830 0 0 0 
-0.021615 0.283227 0.475724 0 0 0 
-0.019556 0.281419 0.473280 0 0 0 
-0.018228 0.280748 0.472610 0 0 0 
-0.017620 0.281212 0.473718 0 0 0 
-0.017364 0.282243 0.475717 0 0 0 
-0.017100 0.283273 0.477718 0 0 0 
-0.016829 0.284302 0.479720 0 0 0 
-0.015850 0.284197 0.479942 0 0 0 
-0.015915 0.285792 0.482839 0 0 0 
-0.015277 0.286253 0.483954 0 0 0 
-0.014634 0.286713 0.485070 0 0 0 
-0.014330 0.287739 0.487080 0 0 0 
-0.014018 0.288764 0.489092 0 0 0 
-0.013360 0.289222 0.490212 0 0 0 
-0.013035 0.290246 0.492226 0 0 0 
-0.012368 0.290704 0.493348 0 0 0 
-0.012029 0.291726 0.495366 0 0 0 
-0.011352 0.292182 0.496490 0 0 0 
-0.010671 0.292639 0.497615 0 0 0 
-0.009986 0.293094 0.498740 0 0 0 
-0.009297 0.293550 0.499867 0 0 0 
-0.008927 0.294569 0.501892 0 0 0 
-0.008229 0.295023 0.503020 0 0 0 
-0.007527 0.295477 0.504150 0 0 0 
-0.006503 0.295367 0.504382 0 0 0 
-0.005479 0.295258 0.504614 0 0 0 
-0.004142 0.294585 0.503947 0 0 0 
-0.003120 0.294476 0.504178 0 0 0 
-0.001478 0.293242 0.502609 0 0 0 
-0.000768 0.293695 0.503740 0 0 0 
0.000252 0.293586 0.503971 0 0 0 
0.001576 0.292915 0.503301 0 0 0 
0.003198 0.291683 0.501727 0 0 0 
0.003912 0.292135 0.502860 0 0 0 
0.005227 0.291466 0.502187 0 0 0 
0.005945 0.291918 0.503320 0 0 0 
0.006666 0.292370 0.504454 0 0 0 
0.007392 0.292821 0.505589 0 0 0 
0.008411 0.292712 0.505820 0 0 0 
0.009431 0.292603 0.506051 0 0 0 
0.010165 0.293054 0.507188 0 0 0 
0.012041 0.291265 0.504701 0 0 0 
0.013057 0.291156 0.504932 0 0 0 
0.014635 0.289929 0.503348 0 0 0 
0.015927 0.289261 0.502670 0 0 0 
0.017491 0.288036 0.501084 0 0 0 
0.018773 0.287369 0.500404 0 0 0 
0.020051 0.286703 0.499723 0 0 0 
0.021596 0.285479 0.498132 0 0 0 
0.023404 0.283698 0.495630 0 0 0 
0.025199 0.281918 0.493125 0 0 0 
0.026984 0.280140 0.490618 0 0 0 
0.029811 0.276133 0.484465 0 0 0 
0.033659 0.269900 0.474661 0 0 0 
0.037204 0.264229 0.465759 0 0 0 
0.039422 0.261345 0.461408 0 0 0 
0.040596 0.260690 0.460704 0 0 0 
0.041512 0.260592 0.460911 0 0 0 
0.041167 0.263275 0.465686 0 0 0 
0.039840 0.268180 0.474120 0 0 0 
0.039790 0.270302 0.477991 0 0 0 
0.040741 0.270200 0.478206 0 0 0 
0.041936 0.269543 0.477506 0 0 0 
0.042642 0.269996 0.478637 0 0 0 
0.042871 0.271559 0.481600 0 0 0 
0.042395 0.274785 0.487316 0 0 0 
0.042889 0.275791 0.489369 0 0 0 
0.044331 0.274578 0.487754 0 0 0 
0.046696 0.271150 0.482467 0 0 0 
0.048577 0.268832 0.479011 0 0 0 
0.049984 0.267623 0.477389 0 0 0 
0.050929 0.267522 0.477603 0 0 0 
0.052099 0.266867 0.476897 0 0 0 
0.052595 0.267872 0.478951 0 0 0 
0.053763 0.267218 0.478245 0 0 0 
0.054708 0.267117 0.478459 0 0 0 
0.055653 0.267016 0.478673 0 0 0 
0.056598 0.266914 0.478887 0 0 0 
0.057543 0.266813 0.479101 0 0 0 
0.058699 0.266160 0.478393 0 0 0 
0.059642 0.266059 0.478607 0 0 0 
0.060793 0.265407 0.477897 0 0 0 
0.061940 0.264755 0.477186 0 0 0 
0.062879 0.264654 0.477399 0 0 0 
0.063616 0.265105 0.478536 0 0 0 
0.064557 0.265004 0.478750 0 0 0 
0.065498 0.264903 0.478963 0 0 0 
0.066047 0.265903 0.481028 0 0 0 
0.068547 0.261402 0.473830 0 0 0 
0.071209 0.256354 0.465699 0 0 0 
0.072884 0.254058 0.462196 0 0 0 
0.074166 0.252862 0.460546 0 0 0 
0.075066 0.252766 0.460750 0 0 0 
0.075782 0.253218 0.461882 0 0 0 
0.076136 0.254768 0.464874 0 0 0 
0.076501 0.256316 0.467868 0 0 0 
0.076520 0.258960 0.472725 0 0 0 
0.075850 0.263795 0.481308 0 0 0 
0.074688 0.270269 0.492691 0 0 0 
0.075133 0.271809 0.495703 0 0 0 
0.075760 0.272800 0.497787 0 0 0 
0.076564 0.273243 0.498939 0 0 0 
0.077540 0.273139 0.499160 0 0 0 
0.078516 0.273034 0.499382 0 0 0 
0.079328 0.273477 0.500536 0 0 0 
0.080143 0.273918 0.501691 0 0 0 
0.080803 0.274906 0.503782 0 0 0 
0.081155 0.276985 0.507744 0 0 0 
0.081522 0.279062 0.511709 0 0 0 
0.082367 0.279501 0.512871 0 0 0 
0.083216 0.279939 0.514034 0 0 0 
0.084068 0.280377 0.515197 0 0 0 
0.084924 0.280815 0.516362 0 0 0 
0.085931 0.280707 0.516590 0 0 0 
0.086793 0.281144 0.517756 0 0 0 
0.087801 0.281036 0.517984 0 0 0 
0.088810 0.280928 0.518213 0 0 0 
0.089680 0.281364 0.519380 0 0 0 
0.090416 0.282343 0.521488 0 0 0 
0.091296 0.282778 0.522658 0 0 0 
0.092179 0.283213 0.523829 0 0 0 
0.092673 0.285277 0.527823 0 0 0 
0.093441 0.286253 0.529938 0 0 0 
0.094216 0.287228 0.532054 0 0 0 
0.094999 0.288203 0.534173 0 0 0 
0.095790 0.289176 0.536293 0 0 0 
0.096831 0.289065 0.536529 0 0 0 
0.097753 0.289495 0.537708 0 0 0 
0.098913 0.288842 0.537001 0 0 0 
0.099839 0.289272 0.538181 0 0 0 
0.100882 0.289160 0.538417 0 0 0 
0.101813 0.289590 0.539599 0 0 0 
0.102968 0.288937 0.538890 0 0 0 
0.103903 0.289366 0.540072 0 0 0 
0.104948 0.289254 0.540309 0 0 0 
0.106097 0.288602 0.539599 0 0 0 
0.108059 0.283629 0.531309 0 0 0 
0.110387 0.276501 0.519219 0 0 0 
0.112664 0.269378 0.507119 0 0 0 
0.114892 0.262260 0.495006 0 0 0 
0.116786 0.256765 0.485730 0 0 0 
0.118087 0.254509 0.482143 0 0 0 
0.119283 0.252794 0.479502 0 0 0 
0.120289 0.252157 0.478760 0 0 0 
0.121292 0.251520 0.478017 0 0 0 
0.122206 0.251422 0.478224 0 0 0 
0.123037 0.251863 0.479383 0 0 0 
0.123711 0.253378 0.482447 0 0 0 
0.124079 0.257043 0.489324 0 0 0 
0.123628 0.266616 0.506691 0 0 0 
0.123095 0.277257 0.525981 0 0 0 
0.123225 0.283593 0.537656 0 0 0 
0.123757 0.287240 0.544571 0 0 0 
0.124594 0.288738 0.547672 0 0 0 
0.125510 0.289698 0.549820 0 0 0 
0.126565 0.289585 0.550059 0 0 0 
0.127619 0.289472 0.550298 0 0 0 
0.128735 0.288824 0.549581 0 0 0 
0.129848 0.288175 0.548862 0 0 0 
0.130956 0.287528 0.548143 0 0 0 
0.132005 0.287415 0.548380 0 0 0 
0.133108 0.286768 0.547660 0 0 0 
0.134207 0.286121 0.546938 0 0 0 
0.135352 0.284940 0.545257 0 0 0 
0.136490 0.283760 0.543573 0 0 0 
0.137619 0.282581 0.541888 0 0 0 
0.138697 0.281936 0.541162 0 0 0 
0.139813 0.280758 0.539474 0 0 0 
0.140882 0.280115 0.538745 0 0 0 
0.141946 0.279472 0.538016 0 0 0 
0.143043 0.278296 0.536323 0 0 0 
0.144132 0.277121 0.534629 0 0 0 
0.145280 0.274881 0.531007 0 0 0 
0.146350 0.273708 0.529308 0 0 0 
0.147412 0.272536 0.527608 0 0 0 
0.148494 0.270833 0.524942 0 0 0 
0.149539 0.269663 0.523237 0 0 0 
0.150576 0.268493 0.521531 0 0 0 
0.151585 0.267856 0.520789 0 0 0 
0.152628 0.266157 0.518114 0 0 0 
0.153625 0.265521 0.517370 0 0 0 
0.154634 0.264354 0.515657 0 0 0 
0.155621 0.263720 0.514910 0 0 0 
0.156616 0.262555 0.513195 0 0 0 
0.157594 0.261921 0.512446 0 0 0 
0.158575 0.260757 0.510727 0 0 0 
0.159537 0.260654 0.510945 0 0 0 
0.160500 0.260551 0.511163 0 0 0 
0.161454 0.262566 0.515261 0 0 0 
0.165200 0.379641 0.731566 0 0 0 
0.166609 0.380549 0.733826 0 0 0 
0.168017 0.380927 0.735116 0 0 0 
0.169430 0.381305 0.736406 0 0 0 
0.170823 0.380627 0.735752 0 0 0 
0.172239 0.381004 0.737043 0 0 0 
0.173644 0.380854 0.737361 0 0 0 
0.175049 0.380704 0.737680 0 0 0 
0.176435 0.380026 0.737023 0 0 0 
0.177837 0.379876 0.737341 0 0 0 
0.179217 0.379199 0.736683 0 0 0 
0.180618 0.379049 0.737000 0 0 0 
0.182019 0.378899 0.737318 0 0 0 
0.183420 0.378749 0.737635 0 0 0 
0.184852 0.379125 0.738930 0 0 0 
0.186255 0.378974 0.739248 0 0 0 
0.187658 0.378824 0.739566 0 0 0 
0.189061 0.378674 0.739884 0 0 0 
0.190463 0.378524 0.740201 0 0 0 
0.191866 0.378373 0.740519 0 0 0 
0.193269 0.378223 0.740837 0 0 0 
0.194628 0.377549 0.740174 0 0 0 
0.195983 0.376874 0.739511 0 0 0 
0.197430 0.377249 0.740809 0 0 0 
0.198781 0.376575 0.740145 0 0 0 
0.200232 0.376949 0.741444 0 0 0 
0.201687 0.377322 0.742744 0 0 0 
0.203089 0.377172 0.743062 0 0 0 
0.204377 0.375976 0.741413 0 0 0 
0.205776 0.375826 0.741730 0 0 0 
0.207114 0.375153 0.741062 0 0 0 
0.208447 0.374481 0.740394 0 0 0 
0.209908 0.374854 0.741695 0 0 0 
0.211305 0.374705 0.742012 0 0 0 
0.212702 0.374555 0.742328 0 0 0 
0.214099 0.374405 0.742645 0 0 0 
0.215496 0.374256 0.742962 0 0 0 
0.216819 0.373585 0.742291 0 0 0 
0.218214 0.373436 0.742607 0 0 0 
0.219688 0.373807 0.743911 0 0 0 
0.221004 0.373137 0.743239 0 0 0 
0.222399 0.372987 0.743555 0 0 0 
0.223710 0.372318 0.742881 0 0 0 
0.225103 0.372169 0.743197 0 0 0 
0.226320 0.370980 0.741532 0 0 0 
0.227799 0.371351 0.742837 0 0 0 
0.229191 0.371202 0.743153 0 0 0 
0.230488 0.370534 0.742476 0 0 0 
0.231781 0.369866 0.741799 0 0 0 
0.233169 0.369717 0.742113 0 0 0 
0.234556 0.369569 0.742427 0 0 0 
0.235944 0.369420 0.742742 0 0 0 
0.237331 0.369272 0.743056 0 0 0 
0.238719 0.369123 0.743370 0 0 0 
0.240214 0.369492 0.744680 0 0 0 
0.241494 0.368826 0.743999 0 0 0 
0.242658 0.367643 0.742322 0 0 0 
0.244155 0.368012 0.743632 0 0 0 
0.245425 0.367347 0.742949 0 0 0 
0.246809 0.367199 0.743262 0 0 0 
0.248073 0.366534 0.742578 0 0 0 
0.249576 0.366902 0.743889 0 0 0 
0.250960 0.366754 0.744203 0 0 0 
0.252344 0.366606 0.744516 0 0 0 
0.253727 0.366458 0.744830 0 0 0 
0.255240 0.366825 0.746143 0 0 0 
0.256494 0.366161 0.745457 0 0 0 
0.257745 0.365498 0.744770 0 0 0 
0.258992 0.364836 0.744082 0 0 0 
0.260236 0.364173 0.743393 0 0 0 
0.261475 0.363511 0.742703 0 0 0 
0.262991 0.363878 0.744017 0 0 0 
0.264369 0.363731 0.744329 0 0 0 
0.265747 0.363583 0.744642 0 0 0 
0.267271 0.363949 0.745957 0 0 0 
0.268651 0.363801 0.746270 0 0 0 
0.270031 0.363654 0.746583 0 0 0 
0.271259 0.362993 0.745890 0 0 0 
0.272483 0.362333 0.745197 0 0 0 
0.273859 0.362185 0.745509 0 0 0 
0.275235 0.362038 0.745821 0 0 0 
0.276611 0.361891 0.746132 0 0 0 
0.277825 0.361231 0.745437 0 0 0 
0.279199 0.361084 0.745748 0 0 0 
0.280573 0.360937 0.746060 0 0 0 
0.281780 0.360279 0.745363 0 0 0 
0.283152 0.360132 0.745673 0 0 0 
0.284524 0.359985 0.745984 0 0 0 
0.285896 0.359838 0.746295 0 0 0 
0.287093 0.359181 0.745596 0 0 0 
0.288640 0.359544 0.746917 0 0 0 
0.289833 0.358887 0.746217 0 0 0 
0.291204 0.358741 0.746527 0 0 0 
0.292574 0.358594 0.746838 0 0 0 
0.293759 0.357938 0.746136 0 0 0 
0.295128 0.357791 0.746446 0 0 0 
0.296496 0.357645 0.746756 0 0 0 
0.297674 0.356989 0.746052 0 0 0 
0.298848 0.356334 0.745347 0 0 0 
0.300406 0.356697 0.746671 0 0 0 
0.301576 0.356042 0.745966 0 0 0 
0.302941 0.355896 0.746275 0 0 0 
0.304305 0.355750 0.746584 0 0 0 
0.305670 0.355604 0.746893 0 0 0 
0.307034 0.355458 0.747202 0 0 0 
0.308398 0.355312 0.747511 0 0 0 
0.309763 0.355166 0.747821 0 0 0 
-0.197279 0.407682 0.626964 0 0 0 
-0.196436 0.408123 0.628125 0 0 0 
-0.194573 0.407392 0.627577 0 0 0 
-0.194232 0.408418 0.629595 0 0 0 
-0.193379 0.408858 0.630758 0 0 0 
-0.192523 0.409297 0.631923 0 0 0 
-0.191162 0.409152 0.632231 0 0 0 
-0.189802 0.409006 0.632539 0 0 0 
-0.188441 0.408860 0.632847 0 0 0 
-0.186586 0.408130 0.632297 0 0 0 
-0.185228 0.407985 0.632605 0 0 0 
-0.183378 0.407256 0.632054 0 0 0 
-0.182022 0.407110 0.632361 0 0 0 
-0.181638 0.408132 0.634389 0 0 0 
-0.180763 0.408569 0.635557 0 0 0 
-0.179400 0.408423 0.635866 0 0 0 
-0.178519 0.408860 0.637036 0 0 0 
-0.178112 0.409879 0.639069 0 0 0 
-0.176744 0.409732 0.639379 0 0 0 
-0.175376 0.409586 0.639689 0 0 0 
-0.174481 0.410021 0.640862 0 0 0 
-0.173111 0.409874 0.641172 0 0 0 
-0.171271 0.409146 0.640619 0 0 0 
-0.169903 0.409000 0.640929 0 0 0 
-0.169000 0.409434 0.642104 0 0 0 
-0.167630 0.409288 0.642414 0 0 0 
-0.166721 0.409721 0.643590 0 0 0 
-0.165809 0.410155 0.644767 0 0 0 
-0.164893 0.410588 0.645945 0 0 0 
-0.163061 0.409861 0.645390 0 0 0 
-0.161687 0.409713 0.645701 0 0 0 
-0.160313 0.409566 0.646013 0 0 0 
-0.158939 0.409419 0.646324 0 0 0 
-0.156668 0.408114 0.644898 0 0 0 
-0.155745 0.408546 0.646077 0 0 0 
-0.154372 0.408399 0.646388 0 0 0 
-0.153443 0.408831 0.647569 0 0 0 
-0.152069 0.408684 0.647880 0 0 0 
-0.151133 0.409115 0.649063 0 0 0 
-0.150194 0.409545 0.650246 0 0 0 
-0.148816 0.409398 0.650558 0 0 0 
-0.147005 0.408673 0.649998 0 0 0 
-0.146060 0.409103 0.651182 0 0 0 
-0.144683 0.408955 0.651495 0 0 0 
-0.143305 0.408807 0.651807 0 0 0 
-0.141927 0.408660 0.652119 0 0 0 
-0.140972 0.409089 0.653305 0 0 0 
-0.140014 0.409517 0.654493 0 0 0 
-0.138632 0.409369 0.654806 0 0 0 
-0.136833 0.408646 0.654243 0 0 0 
-0.135868 0.409074 0.655432 0 0 0 
-0.134487 0.408926 0.655745 0 0 0 
-0.133105 0.408778 0.656058 0 0 0 
-0.131723 0.408630 0.656371 0 0 0 
-0.130342 0.408482 0.656684 0 0 0 
-0.129366 0.408908 0.657876 0 0 0 
-0.127982 0.408760 0.658189 0 0 0 
-0.126598 0.408612 0.658503 0 0 0 
-0.125215 0.408464 0.658816 0 0 0 
-0.124229 0.408890 0.660010 0 0 0 
-0.122844 0.408741 0.660324 0 0 0 
-0.121458 0.408593 0.660638 0 0 0 
-0.120465 0.409018 0.661833 0 0 0 
-0.119078 0.408869 0.662147 0 0 0 
-0.118079 0.409293 0.663344 0 0 0 
-0.116689 0.409144 0.663659 0 0 0 
-0.115300 0.408996 0.663974 0 0 0 
-0.113528 0.408275 0.663405 0 0 0 
-0.112140 0.408126 0.663719 0 0 0 
-0.110753 0.407978 0.664034 0 0 0 
-0.108611 0.406686 0.662578 0 0 0 
-0.107227 0.406538 0.662892 0 0 0 
-0.104724 0.404676 0.660548 0 0 0 
-0.101490 0.401674 0.656429 0 0 0 
-0.096798 0.396391 0.648759 0 0 0 
-0.022829 0.284894 0.476309 0 0 0 
-0.020399 0.282509 0.472978 0 0 0 
-0.018708 0.281266 0.471421 0 0 0 
-0.017384 0.280593 0.470751 0 0 0 
-0.017138 0.281629 0.472747 0 0 0 
-0.016883 0.282664 0.474745 0 0 0 
-0.016267 0.283129 0.475855 0 0 0 
-0.016000 0.284163 0.477857 0 0 0 
-0.015374 0.284627 0.478969 0 0 0 
-0.015441 0.286228 0.481864 0 0 0 
-0.014457 0.286122 0.482087 0 0 0 
-0.014163 0.287153 0.484095 0 0 0 
-0.013860 0.288183 0.486104 0 0 0 
-0.013891 0.289780 0.489008 0 0 0 
-0.013232 0.290240 0.490127 0 0 0 
-0.012907 0.291268 0.492142 0 0 0 
-0.012239 0.291727 0.493263 0 0 0 
-0.011900 0.292753 0.495281 0 0 0 
-0.011222 0.293212 0.496404 0 0 0 
-0.010212 0.293104 0.496633 0 0 0 
-0.009856 0.294128 0.498655 0 0 0 
-0.009166 0.294585 0.499781 0 0 0 
-0.008150 0.294477 0.500011 0 0 0 
-0.007134 0.294368 0.500242 0 0 0 
-0.006757 0.295390 0.502268 0 0 0 
-0.005419 0.294715 0.501600 0 0 0 
-0.004717 0.295171 0.502730 0 0 0 
-0.003383 0.294497 0.502062 0 0 0 
-0.002365 0.294388 0.502292 0 0 0 
-0.000728 0.293151 0.500723 0 0 0 
-0.000022 0.293606 0.501853 0 0 0 
0.000994 0.293497 0.502083 0 0 0 
0.002314 0.292825 0.501412 0 0 0 
0.003933 0.291589 0.499838 0 0 0 
0.004643 0.292044 0.500969 0 0 0 
0.005953 0.291373 0.500296 0 0 0 
0.006667 0.291828 0.501428 0 0 0 
0.007385 0.292282 0.502561 0 0 0 
0.008107 0.292736 0.503695 0 0 0 
0.009414 0.292065 0.503020 0 0 0 
0.010428 0.291956 0.503250 0 0 0 
0.011155 0.292409 0.504385 0 0 0 
0.012741 0.291177 0.502804 0 0 0 
0.013753 0.291069 0.503033 0 0 0 
0.015327 0.289838 0.501449 0 0 0 
0.016614 0.289169 0.500771 0 0 0 
0.018174 0.287940 0.499184 0 0 0 
0.019727 0.286711 0.497595 0 0 0 
0.021272 0.285483 0.496004 0 0 0 
0.023352 0.283136 0.492594 0 0 0 
0.025416 0.280790 0.489181 0 0 0 
0.026930 0.279566 0.487583 0 0 0 
0.028436 0.278342 0.485984 0 0 0 
0.030726 0.275441 0.481651 0 0 0 
0.033780 0.270865 0.474581 0 0 0 
0.037583 0.264615 0.464769 0 0 0 
0.039797 0.261722 0.460419 0 0 0 
0.040969 0.261065 0.459714 0 0 0 
0.041883 0.260967 0.459921 0 0 0 
0.042041 0.262544 0.462868 0 0 0 
0.040961 0.266909 0.470386 0 0 0 
0.040656 0.269597 0.475168 0 0 0 
0.041355 0.270054 0.476297 0 0 0 
0.042546 0.269395 0.475596 0 0 0 
0.043491 0.269294 0.475810 0 0 0 
0.043955 0.270307 0.477856 0 0 0 
0.043711 0.272988 0.482652 0 0 0 
0.044197 0.273999 0.484703 0 0 0 
0.045159 0.273896 0.484921 0 0 0 
0.047517 0.270456 0.479633 0 0 0 
0.049160 0.268687 0.477095 0 0 0 
0.050563 0.267474 0.475472 0 0 0 
0.051504 0.267374 0.475685 0 0 0 
0.052670 0.266718 0.474979 0 0 0 
0.053163 0.267727 0.477031 0 0 0 
0.053884 0.268181 0.478165 0 0 0 
0.054829 0.268080 0.478379 0 0 0 
0.055991 0.267424 0.477672 0 0 0 
0.057150 0.266769 0.476964 0 0 0 
0.058091 0.266668 0.477178 0 0 0 
0.059032 0.266567 0.477391 0 0 0 
0.059973 0.266467 0.477604 0 0 0 
0.061122 0.265813 0.476894 0 0 0 
0.062266 0.265159 0.476183 0 0 0 
0.063204 0.265058 0.476395 0 0 0 
0.063939 0.265511 0.477532 0 0 0 
0.064878 0.265410 0.477745 0 0 0 
0.065817 0.265310 0.477958 0 0 0 
0.066560 0.265761 0.479097 0 0 0 
0.068861 0.261797 0.472826 0 0 0 
0.071326 0.257284 0.465622 0 0 0 
0.073000 0.254980 0.462120 0 0 0 
0.074281 0.253780 0.460469 0 0 0 
0.075182 0.253684 0.460674 0 0 0 
0.075898 0.254138 0.461806 0 0 0 
0.076435 0.255143 0.463868 0 0 0 
0.076799 0.256698 0.466862 0 0 0 
0.076818 0.259351 0.471717 0 0 0 
0.076147 0.264204 0.480298 0 0 0 
0.075162 0.270152 0.490748 0 0 0 
0.075603 0.271698 0.493759 0 0 0 
0.076056 0.273243 0.496773 0 0 0 
0.076859 0.273688 0.497925 0 0 0 
0.077832 0.273584 0.498146 0 0 0 
0.078806 0.273480 0.498366 0 0 0 
0.079453 0.274473 0.500453 0 0 0 
0.080269 0.274917 0.501609 0 0 0 
0.080770 0.276457 0.504633 0 0 0 
0.081125 0.278543 0.508595 0 0 0 
0.081651 0.280080 0.511625 0 0 0 
0.082496 0.280521 0.512786 0 0 0 
0.083344 0.280961 0.513949 0 0 0 
0.084347 0.280854 0.514176 0 0 0 
0.085202 0.281294 0.515340 0 0 0 
0.086060 0.281733 0.516505 0 0 0 
0.086922 0.282172 0.517671 0 0 0 
0.087788 0.282610 0.518837 0 0 0 
0.088658 0.283048 0.520005 0 0 0 
0.089671 0.282940 0.520234 0 0 0 
0.090683 0.282831 0.520463 0 0 0 
0.091695 0.282723 0.520693 0 0 0 
0.092575 0.283160 0.521862 0 0 0 
0.093328 0.284142 0.523973 0 0 0 
0.094088 0.285122 0.526086 0 0 0 
0.094729 0.286647 0.529142 0 0 0 
0.095382 0.288171 0.532201 0 0 0 
0.096170 0.289149 0.534320 0 0 0 
0.097086 0.289582 0.535498 0 0 0 
0.098006 0.290015 0.536677 0 0 0 
0.099047 0.289903 0.536913 0 0 0 
0.100088 0.289792 0.537149 0 0 0 
0.101016 0.290223 0.538329 0 0 0 
0.102059 0.290112 0.538566 0 0 0 
0.102992 0.290543 0.539747 0 0 0 
0.104037 0.290431 0.539984 0 0 0 
0.105082 0.290319 0.540221 0 0 0 
0.106438 0.288581 0.537617 0 0 0 
0.108089 0.285217 0.532169 0 0 0 
0.110215 0.279146 0.521978 0 0 0 
0.112397 0.272539 0.510828 0 0 0 
0.115014 0.263229 0.494926 0 0 0 
0.117000 0.257173 0.484703 0 0 0 
0.118298 0.254910 0.481116 0 0 0 
0.119491 0.253188 0.478475 0 0 0 
0.120583 0.252009 0.476782 0 0 0 
0.121496 0.251911 0.476989 0 0 0 
0.122323 0.252354 0.478146 0 0 0 
0.123155 0.252796 0.479305 0 0 0 
0.123667 0.255397 0.484273 0 0 0 
0.123570 0.262313 0.496865 0 0 0 
0.122984 0.272999 0.516138 0 0 0 
0.122925 0.280441 0.529709 0 0 0 
0.123357 0.284644 0.537569 0 0 0 
0.124105 0.286689 0.541620 0 0 0 
0.124867 0.288732 0.545674 0 0 0 
0.125780 0.289696 0.547821 0 0 0 
0.126765 0.290122 0.549015 0 0 0 
0.127818 0.290009 0.549253 0 0 0 
0.128932 0.289359 0.548535 0 0 0 
0.129983 0.289246 0.548773 0 0 0 
0.131091 0.288597 0.548054 0 0 0 
0.132140 0.288484 0.548292 0 0 0 
0.133242 0.287835 0.547571 0 0 0 
0.134289 0.287723 0.547809 0 0 0 
0.135436 0.286538 0.546128 0 0 0 
0.136575 0.285354 0.544445 0 0 0 
0.137706 0.284170 0.542761 0 0 0 
0.138829 0.282987 0.541075 0 0 0 
0.139945 0.281806 0.539387 0 0 0 
0.141013 0.281160 0.538659 0 0 0 
0.142115 0.279980 0.536968 0 0 0 
0.143210 0.278800 0.535275 0 0 0 
0.144297 0.277621 0.533581 0 0 0 
0.145409 0.275909 0.530922 0 0 0 
0.146509 0.274198 0.528260 0 0 0 
0.147598 0.272488 0.525596 0 0 0 
0.148648 0.271313 0.523893 0 0 0 
0.149691 0.270139 0.522189 0 0 0 
0.150703 0.269499 0.521448 0 0 0 
0.151732 0.268327 0.519741 0 0 0 
0.152773 0.266622 0.517065 0 0 0 
0.153768 0.265984 0.516321 0 0 0 
0.154789 0.264281 0.513641 0 0 0 
0.155772 0.263645 0.512893 0 0 0 
0.156763 0.262476 0.511177 0 0 0 
0.157736 0.261841 0.510428 0 0 0 
0.158706 0.261206 0.509677 0 0 0 
0.159672 0.260571 0.508925 0 0 0 
0.160630 0.260469 0.509143 0 0 0 
0.161584 0.261960 0.512269 0 0 0 
0.165347 0.376819 0.723678 0 0 0 
0.166770 0.380385 0.730793 0 0 0 
0.168174 0.380766 0.732081 0 0 0 
0.169590 0.381677 0.734343 0 0 0 
0.170979 0.380997 0.733687 0 0 0 
0.172379 0.380847 0.734004 0 0 0 
0.173762 0.380168 0.733347 0 0 0 
0.175159 0.380018 0.733664 0 0 0 
0.176537 0.379339 0.733006 0 0 0 
0.177932 0.379190 0.733322 0 0 0 
0.179327 0.379041 0.733638 0 0 0 
0.180722 0.378891 0.733954 0 0 0 
0.182118 0.378742 0.734270 0 0 0 
0.183542 0.379120 0.735563 0 0 0 
0.184939 0.378971 0.735880 0 0 0 
0.186336 0.378821 0.736196 0 0 0 
0.187698 0.378144 0.735534 0 0 0 
0.189094 0.377995 0.735851 0 0 0 
0.190489 0.377845 0.736167 0 0 0 
0.191925 0.378223 0.737462 0 0 0 
0.193322 0.378073 0.737779 0 0 0 
0.194719 0.377924 0.738095 0 0 0 
0.196070 0.377248 0.737431 0 0 0 
0.197465 0.377098 0.737747 0 0 0 
0.198810 0.376423 0.737082 0 0 0 
0.200255 0.376800 0.738379 0 0 0 
0.201650 0.376650 0.738696 0 0 0 
0.203046 0.376501 0.739012 0 0 0 
0.204325 0.375302 0.737361 0 0 0 
0.205716 0.375152 0.737676 0 0 0 
0.207108 0.375004 0.737991 0 0 0 
0.208499 0.374855 0.738307 0 0 0 
0.209956 0.375230 0.739607 0 0 0 
0.211349 0.375080 0.739923 0 0 0 
0.212673 0.374408 0.739252 0 0 0 
0.213993 0.373735 0.738581 0 0 0 
0.215382 0.373586 0.738896 0 0 0 
0.216697 0.372914 0.738223 0 0 0 
0.218084 0.372766 0.738538 0 0 0 
0.219551 0.373140 0.739840 0 0 0 
0.220859 0.372469 0.739166 0 0 0 
0.222247 0.372320 0.739481 0 0 0 
0.223634 0.372172 0.739795 0 0 0 
0.224935 0.371501 0.739120 0 0 0 
0.226232 0.370831 0.738443 0 0 0 
0.227615 0.370683 0.738757 0 0 0 
0.228999 0.370535 0.739070 0 0 0 
0.230383 0.370387 0.739384 0 0 0 
0.231766 0.370238 0.739697 0 0 0 
0.233052 0.369570 0.739018 0 0 0 
0.234333 0.368901 0.738338 0 0 0 
0.235815 0.369274 0.739644 0 0 0 
0.237197 0.369126 0.739957 0 0 0 
0.238473 0.368458 0.739276 0 0 0 
0.239852 0.368310 0.739588 0 0 0 
0.241232 0.368163 0.739901 0 0 0 
0.242500 0.367496 0.739218 0 0 0 
0.243992 0.367867 0.740526 0 0 0 
0.245372 0.367719 0.740839 0 0 0 
0.246634 0.367053 0.740155 0 0 0 
0.248012 0.366905 0.740467 0 0 0 
0.249390 0.366758 0.740779 0 0 0 
0.250767 0.366610 0.741091 0 0 0 
0.252145 0.366463 0.741403 0 0 0 
0.253523 0.366315 0.741716 0 0 0 
0.254901 0.366168 0.742028 0 0 0 
0.256148 0.365503 0.741340 0 0 0 
0.257524 0.365356 0.741652 0 0 0 
0.258765 0.364692 0.740963 0 0 0 
0.260002 0.364028 0.740273 0 0 0 
0.261235 0.363365 0.739582 0 0 0 
0.262606 0.363218 0.739892 0 0 0 
0.264118 0.363587 0.741205 0 0 0 
0.265491 0.363440 0.741516 0 0 0 
0.267009 0.363809 0.742830 0 0 0 
0.268531 0.364177 0.744146 0 0 0 
0.269907 0.364030 0.744457 0 0 0 
0.271283 0.363882 0.744769 0 0 0 
0.272505 0.363220 0.744076 0 0 0 
0.273879 0.363073 0.744387 0 0 0 
0.275095 0.362412 0.743692 0 0 0 
0.276307 0.361751 0.742997 0 0 0 
0.277516 0.361090 0.742300 0 0 0 
0.278884 0.360944 0.742610 0 0 0 
0.280252 0.360797 0.742920 0 0 0 
0.281621 0.360651 0.743230 0 0 0 
0.282989 0.360504 0.743540 0 0 0 
0.284357 0.360358 0.743850 0 0 0 
0.285725 0.360211 0.744160 0 0 0 
0.286918 0.359552 0.743460 0 0 0 
0.288285 0.359406 0.743770 0 0 0 
0.289472 0.358748 0.743068 0 0 0 
0.290655 0.358090 0.742366 0 0 0 
0.292201 0.358456 0.743687 0 0 0 
0.293195 0.357287 0.741971 0 0 0 
0.294556 0.357141 0.742280 0 0 0 
0.295916 0.356995 0.742588 0 0 0 
0.297277 0.356850 0.742896 0 0 0 
0.298252 0.355683 0.741176 0 0 0 
0.299609 0.355538 0.741484 0 0 0 
0.300966 0.355392 0.741791 0 0 0 
0.302124 0.354737 0.741083 0 0 0 
0.303679 0.355102 0.742406 0 0 0 
0.305238 0.355466 0.743729 0 0 0 
0.306392 0.354811 0.743021 0 0 0 
0.307955 0.355175 0.744345 0 0 0 
0.309106 0.354521 0.743636 0 0 0 
-0.196082 0.407885 0.625141 0 0 0 
-0.195243 0.408328 0.626301 0 0 0 
-0.193384 0.407596 0.625752 0 0 0 
-0.192541 0.408039 0.626914 0 0 0 
-0.191694 0.408481 0.628076 0 0 0 
-0.190843 0.408923 0.629239 0 0 0 
-0.189488 0.408778 0.629546 0 0 0 
-0.188133 0.408633 0.629852 0 0 0 
-0.186778 0.408488 0.630159 0 0 0 
-0.184929 0.407757 0.629608 0 0 0 
-0.183577 0.407612 0.629915 0 0 0 
-0.182224 0.407467 0.630221 0 0 0 
-0.180871 0.407322 0.630528 0 0 0 
-0.180004 0.407763 0.631694 0 0 0 
-0.179134 0.408203 0.632861 0 0 0 
-0.177778 0.408057 0.633169 0 0 0 
-0.176902 0.408497 0.634337 0 0 0 
-0.176022 0.408936 0.635507 0 0 0 
-0.175138 0.409374 0.636677 0 0 0 
-0.173301 0.408644 0.636123 0 0 0 
-0.172413 0.409082 0.637295 0 0 0 
-0.171051 0.408937 0.637603 0 0 0 
-0.169688 0.408791 0.637912 0 0 0 
-0.168326 0.408645 0.638221 0 0 0 
-0.167428 0.409082 0.639394 0 0 0 
-0.166527 0.409518 0.640568 0 0 0 
-0.165622 0.409955 0.641743 0 0 0 
-0.164254 0.409808 0.642053 0 0 0 
-0.163344 0.410244 0.643230 0 0 0 
-0.161973 0.410097 0.643540 0 0 0 
-0.160603 0.409950 0.643851 0 0 0 
-0.158781 0.409222 0.643293 0 0 0 
-0.157863 0.409657 0.644471 0 0 0 
-0.156045 0.408929 0.643913 0 0 0 
-0.154676 0.408783 0.644223 0 0 0 
-0.153308 0.408636 0.644533 0 0 0 
-0.152382 0.409070 0.645713 0 0 0 
-0.151012 0.408923 0.646024 0 0 0 
-0.150080 0.409357 0.647205 0 0 0 
-0.149144 0.409790 0.648387 0 0 0 
-0.147770 0.409643 0.648698 0 0 0 
-0.145964 0.408916 0.648137 0 0 0 
-0.145022 0.409348 0.649321 0 0 0 
-0.143648 0.409201 0.649632 0 0 0 
-0.141848 0.408475 0.649070 0 0 0 
-0.140900 0.408907 0.650255 0 0 0 
-0.139526 0.408760 0.650566 0 0 0 
-0.138573 0.409191 0.651752 0 0 0 
-0.137197 0.409044 0.652064 0 0 0 
-0.135821 0.408896 0.652376 0 0 0 
-0.134445 0.408749 0.652687 0 0 0 
-0.133483 0.409179 0.653876 0 0 0 
-0.131694 0.408454 0.653311 0 0 0 
-0.130727 0.408884 0.654500 0 0 0 
-0.128942 0.408160 0.653934 0 0 0 
-0.127971 0.408589 0.655124 0 0 0 
-0.126593 0.408441 0.655437 0 0 0 
-0.125216 0.408294 0.655749 0 0 0 
-0.123838 0.408146 0.656061 0 0 0 
-0.122858 0.408574 0.657253 0 0 0 
-0.121478 0.408427 0.657566 0 0 0 
-0.120492 0.408854 0.658759 0 0 0 
-0.119111 0.408706 0.659072 0 0 0 
-0.117729 0.408558 0.659385 0 0 0 
-0.116347 0.408410 0.659698 0 0 0 
-0.114965 0.408262 0.660011 0 0 0 
-0.113584 0.408114 0.660324 0 0 0 
-0.112202 0.407966 0.660637 0 0 0 
-0.110820 0.407819 0.660950 0 0 0 
-0.109438 0.407671 0.661263 0 0 0 
-0.107303 0.406376 0.659807 0 0 0 
-0.105550 0.405655 0.659234 0 0 0 
-0.103056 0.403788 0.656889 0 0 0 
-0.099089 0.399631 0.650997 0 0 0 
-0.095148 0.395477 0.645099 0 0 0 
-0.021243 0.283599 0.472677 0 0 0 
-0.019549 0.282352 0.471121 0 0 0 
-0.017862 0.281105 0.469563 0 0 0 
-0.016902 0.281002 0.469781 0 0 0 
-0.016656 0.282042 0.471776 0 0 0 
-0.016403 0.283081 0.473774 0 0 0 
-0.015789 0.283549 0.474883 0 0 0 
-0.015523 0.284586 0.476884 0 0 0 
-0.014899 0.285053 0.477995 0 0 0 
-0.014967 0.286659 0.480890 0 0 0 
-0.014331 0.287124 0.482004 0 0 0 
-0.014380 0.288729 0.484903 0 0 0 
-0.013733 0.289193 0.486020 0 0 0 
-0.013763 0.290796 0.488923 0 0 0 
-0.013104 0.291258 0.490043 0 0 0 
-0.012778 0.292290 0.492057 0 0 0 
-0.012444 0.293320 0.494073 0 0 0 
-0.011770 0.293781 0.495195 0 0 0 
-0.011093 0.294242 0.496319 0 0 0 
-0.010411 0.294702 0.497444 0 0 0 
-0.009399 0.294594 0.497673 0 0 0 
-0.008386 0.294485 0.497902 0 0 0 
-0.007374 0.294377 0.498132 0 0 0 
-0.006041 0.293701 0.497464 0 0 0 
-0.005350 0.294160 0.498590 0 0 0 
-0.004338 0.294052 0.498820 0 0 0 
-0.003640 0.294510 0.499948 0 0 0 
-0.002313 0.293835 0.499278 0 0 0 
-0.001301 0.293726 0.499508 0 0 0 
0.000021 0.293052 0.498837 0 0 0 
0.001339 0.292378 0.498165 0 0 0 
0.002347 0.292270 0.498394 0 0 0 
0.003052 0.292727 0.499524 0 0 0 
0.004364 0.292054 0.498851 0 0 0 
0.005372 0.291946 0.499079 0 0 0 
0.006381 0.291838 0.499308 0 0 0 
0.007389 0.291730 0.499536 0 0 0 
0.008397 0.291622 0.499765 0 0 0 
0.009114 0.292078 0.500897 0 0 0 
0.010124 0.291970 0.501126 0 0 0 
0.011423 0.291298 0.500450 0 0 0 
0.012431 0.291190 0.500679 0 0 0 
0.014008 0.289955 0.499096 0 0 0 
0.015295 0.289284 0.498417 0 0 0 
0.016578 0.288613 0.497738 0 0 0 
0.017579 0.288506 0.497965 0 0 0 
0.019133 0.287273 0.496377 0 0 0 
0.020954 0.285479 0.493879 0 0 0 
0.022491 0.284248 0.492287 0 0 0 
0.024562 0.281893 0.488876 0 0 0 
0.027156 0.278417 0.483643 0 0 0 
0.028658 0.277190 0.482043 0 0 0 
0.029887 0.276525 0.481352 0 0 0 
0.031639 0.274738 0.478838 0 0 0 
0.034424 0.270708 0.472679 0 0 0 
0.037442 0.266119 0.465602 0 0 0 
0.039915 0.262656 0.460342 0 0 0 
0.041342 0.261436 0.458725 0 0 0 
0.042000 0.261899 0.459844 0 0 0 
0.042411 0.262921 0.461877 0 0 0 
0.042080 0.265623 0.466653 0 0 0 
0.041273 0.269441 0.473260 0 0 0 
0.041722 0.270459 0.475302 0 0 0 
0.043155 0.269240 0.473687 0 0 0 
0.044096 0.269139 0.473900 0 0 0 
0.044797 0.269597 0.475029 0 0 0 
0.045025 0.271172 0.477991 0 0 0 
0.045501 0.272187 0.480039 0 0 0 
0.046220 0.272643 0.481172 0 0 0 
0.048104 0.270309 0.477718 0 0 0 
0.049742 0.268534 0.475179 0 0 0 
0.051140 0.267318 0.473556 0 0 0 
0.052078 0.267218 0.473768 0 0 0 
0.053240 0.266560 0.473061 0 0 0 
0.053729 0.267574 0.475112 0 0 0 
0.054668 0.267474 0.475325 0 0 0 
0.055607 0.267373 0.475538 0 0 0 
0.056764 0.266716 0.474830 0 0 0 
0.057701 0.266616 0.475042 0 0 0 
0.058638 0.266515 0.475255 0 0 0 
0.059575 0.266415 0.475467 0 0 0 
0.060512 0.266315 0.475679 0 0 0 
0.061242 0.266770 0.476815 0 0 0 
0.062387 0.266114 0.476104 0 0 0 
0.063527 0.265459 0.475392 0 0 0 
0.064261 0.265913 0.476529 0 0 0 
0.064999 0.266367 0.477666 0 0 0 
0.065938 0.266267 0.477879 0 0 0 
0.066877 0.266166 0.478091 0 0 0 
0.068980 0.262742 0.472747 0 0 0 
0.071443 0.258213 0.465545 0 0 0 
0.073306 0.255348 0.461116 0 0 0 
0.074397 0.254698 0.460393 0 0 0 
0.075297 0.254602 0.460597 0 0 0 
0.076014 0.255058 0.461730 0 0 0 
0.076369 0.256619 0.464721 0 0 0 
0.076736 0.258180 0.467714 0 0 0 
0.076936 0.260291 0.471640 0 0 0 
0.076444 0.264609 0.479289 0 0 0 
0.075285 0.271131 0.490667 0 0 0 
0.075727 0.272683 0.493678 0 0 0 
0.076181 0.274234 0.496691 0 0 0 
0.076815 0.275232 0.498775 0 0 0 
0.077957 0.274577 0.498063 0 0 0 
0.078931 0.274472 0.498284 0 0 0 
0.079742 0.274919 0.499438 0 0 0 
0.080395 0.275915 0.501526 0 0 0 
0.080896 0.277461 0.504550 0 0 0 
0.081409 0.279005 0.507576 0 0 0 
0.082090 0.279999 0.509671 0 0 0 
0.082777 0.280991 0.511767 0 0 0 
0.083625 0.281434 0.512929 0 0 0 
0.084625 0.281327 0.513155 0 0 0 
0.085478 0.281768 0.514319 0 0 0 
0.086335 0.282210 0.515483 0 0 0 
0.087196 0.282651 0.516648 0 0 0 
0.088060 0.283091 0.517814 0 0 0 
0.089068 0.282983 0.518042 0 0 0 
0.090077 0.282875 0.518271 0 0 0 
0.091085 0.282767 0.518499 0 0 0 
0.092094 0.282660 0.518728 0 0 0 
0.093102 0.282552 0.518956 0 0 0 
0.093980 0.282991 0.520125 0 0 0 
0.094733 0.283976 0.522236 0 0 0 
0.095368 0.285508 0.525290 0 0 0 
0.096014 0.287038 0.528347 0 0 0 
0.096548 0.289113 0.532348 0 0 0 
0.097340 0.290095 0.534468 0 0 0 
0.098139 0.291076 0.536589 0 0 0 
0.099298 0.290419 0.535881 0 0 0 
0.100337 0.290307 0.536117 0 0 0 
0.101489 0.289651 0.535408 0 0 0 
0.102415 0.290085 0.536588 0 0 0 
0.103345 0.290518 0.537768 0 0 0 
0.104386 0.290407 0.538004 0 0 0 
0.105533 0.289751 0.537294 0 0 0 
0.106882 0.288007 0.534689 0 0 0 
0.108424 0.285176 0.530188 0 0 0 
0.110145 0.281260 0.523788 0 0 0 
0.112426 0.274085 0.511693 0 0 0 
0.115040 0.264741 0.495794 0 0 0 
0.117119 0.258121 0.484624 0 0 0 
0.118508 0.255306 0.480089 0 0 0 
0.119698 0.253579 0.477448 0 0 0 
0.120700 0.252939 0.476705 0 0 0 
0.121613 0.252841 0.476912 0 0 0 
0.122356 0.253828 0.479020 0 0 0 
0.123108 0.254814 0.481131 0 0 0 
0.123465 0.258507 0.488002 0 0 0 
0.123142 0.267072 0.503450 0 0 0 
0.122652 0.277255 0.521771 0 0 0 
0.122980 0.282018 0.530576 0 0 0 
0.123562 0.285155 0.536528 0 0 0 
0.124450 0.286126 0.538670 0 0 0 
0.125208 0.288177 0.542722 0 0 0 
0.126048 0.289687 0.545823 0 0 0 
0.126965 0.290655 0.547970 0 0 0 
0.128016 0.290542 0.548208 0 0 0 
0.129006 0.290969 0.549403 0 0 0 
0.130117 0.290317 0.548685 0 0 0 
0.131225 0.289665 0.547966 0 0 0 
0.132274 0.289553 0.548203 0 0 0 
0.133377 0.288902 0.547483 0 0 0 
0.134423 0.288790 0.547720 0 0 0 
0.135570 0.287601 0.546040 0 0 0 
0.136660 0.286951 0.545317 0 0 0 
0.137793 0.285763 0.543633 0 0 0 
0.138962 0.284039 0.540988 0 0 0 
0.140077 0.282853 0.539300 0 0 0 
0.141185 0.281668 0.537611 0 0 0 
0.142247 0.281021 0.536881 0 0 0 
0.143341 0.279838 0.535189 0 0 0 
0.144461 0.278118 0.532533 0 0 0 
0.145571 0.276400 0.529874 0 0 0 
0.146638 0.275219 0.528175 0 0 0 
0.147726 0.273504 0.525512 0 0 0 
0.148776 0.272325 0.523809 0 0 0 
0.149818 0.271147 0.522105 0 0 0 
0.150830 0.270505 0.521365 0 0 0 
0.151858 0.269329 0.519657 0 0 0 
0.152898 0.267618 0.516983 0 0 0 
0.153910 0.266444 0.515272 0 0 0 
0.154913 0.265270 0.513559 0 0 0 
0.155909 0.264097 0.511845 0 0 0 
0.156887 0.263459 0.511096 0 0 0 
0.157860 0.262822 0.510346 0 0 0 
0.158844 0.261117 0.507659 0 0 0 
0.159800 0.261014 0.507876 0 0 0 
0.160760 0.260379 0.507123 0 0 0 
0.161713 0.260810 0.508309 0 0 0 
0.165499 0.375032 0.717735 0 0 0 
0.166925 0.379677 0.726789 0 0 0 
0.168328 0.380593 0.729047 0 0 0 
0.169730 0.380976 0.730335 0 0 0 
0.171123 0.380827 0.730650 0 0 0 
0.172516 0.380678 0.730966 0 0 0 
0.173894 0.379997 0.730308 0 0 0 
0.175303 0.380379 0.731597 0 0 0 
0.176657 0.379168 0.729964 0 0 0 
0.178046 0.379019 0.730279 0 0 0 
0.179436 0.378871 0.730594 0 0 0 
0.180825 0.378722 0.730909 0 0 0 
0.182242 0.379103 0.732200 0 0 0 
0.183633 0.378954 0.732515 0 0 0 
0.185025 0.378805 0.732830 0 0 0 
0.186383 0.378127 0.732168 0 0 0 
0.187772 0.377978 0.732482 0 0 0 
0.189162 0.377829 0.732797 0 0 0 
0.190551 0.377680 0.733112 0 0 0 
0.191981 0.378060 0.734406 0 0 0 
0.193373 0.377911 0.734721 0 0 0 
0.194764 0.377762 0.735037 0 0 0 
0.196202 0.378142 0.736333 0 0 0 
0.197547 0.377464 0.735667 0 0 0 
0.198888 0.376788 0.735001 0 0 0 
0.200329 0.377167 0.736298 0 0 0 
0.201721 0.377018 0.736613 0 0 0 
0.203056 0.376341 0.735945 0 0 0 
0.204387 0.375666 0.735277 0 0 0 
0.205715 0.374990 0.734608 0 0 0 
0.207038 0.374316 0.733937 0 0 0 
0.208486 0.374694 0.735235 0 0 0 
0.209871 0.374545 0.735549 0 0 0 
0.211257 0.374397 0.735863 0 0 0 
0.212642 0.374249 0.736177 0 0 0 
0.213956 0.373575 0.735505 0 0 0 
0.215193 0.372376 0.733845 0 0 0 
0.216573 0.372228 0.734157 0 0 0 
0.217953 0.372081 0.734470 0 0 0 
0.219332 0.371933 0.734783 0 0 0 
0.220712 0.371785 0.735095 0 0 0 
0.222092 0.371637 0.735408 0 0 0 
0.223387 0.370965 0.734731 0 0 0 
0.224765 0.370818 0.735043 0 0 0 
0.226053 0.370147 0.734365 0 0 0 
0.227429 0.369999 0.734677 0 0 0 
0.228805 0.369852 0.734989 0 0 0 
0.230276 0.370228 0.736292 0 0 0 
0.231654 0.370080 0.736604 0 0 0 
0.232933 0.369410 0.735924 0 0 0 
0.234209 0.368740 0.735243 0 0 0 
0.235685 0.369115 0.736547 0 0 0 
0.236957 0.368446 0.735865 0 0 0 
0.238331 0.368299 0.736177 0 0 0 
0.239813 0.368673 0.737483 0 0 0 
0.241189 0.368526 0.737794 0 0 0 
0.242341 0.367336 0.736115 0 0 0 
0.243713 0.367189 0.736426 0 0 0 
0.245085 0.367043 0.736737 0 0 0 
0.246339 0.366375 0.736051 0 0 0 
0.247709 0.366228 0.736362 0 0 0 
0.249080 0.366082 0.736672 0 0 0 
0.250450 0.365935 0.736982 0 0 0 
0.251820 0.365788 0.737293 0 0 0 
0.253190 0.365642 0.737603 0 0 0 
0.254560 0.365495 0.737914 0 0 0 
0.255799 0.364829 0.737224 0 0 0 
0.257034 0.364164 0.736534 0 0 0 
0.258401 0.364017 0.736844 0 0 0 
0.259767 0.363871 0.737153 0 0 0 
0.261133 0.363725 0.737463 0 0 0 
0.262500 0.363578 0.737772 0 0 0 
0.263866 0.363432 0.738082 0 0 0 
0.265232 0.363286 0.738392 0 0 0 
0.266745 0.363657 0.739704 0 0 0 
0.268114 0.363510 0.740014 0 0 0 
0.269632 0.363881 0.741329 0 0 0 
0.271002 0.363734 0.741639 0 0 0 
0.272218 0.363071 0.740944 0 0 0 
0.273587 0.362924 0.741254 0 0 0 
0.274797 0.362262 0.740559 0 0 0 
0.276163 0.362115 0.740868 0 0 0 
0.277367 0.361453 0.740171 0 0 0 
0.278732 0.361307 0.740480 0 0 0 
0.280262 0.361676 0.741797 0 0 0 
0.281628 0.361530 0.742106 0 0 0 
0.282825 0.360869 0.741407 0 0 0 
0.284189 0.360723 0.741716 0 0 0 
0.285554 0.360577 0.742026 0 0 0 
0.286742 0.359916 0.741325 0 0 0 
0.287927 0.359256 0.740623 0 0 0 
0.289288 0.359110 0.740932 0 0 0 
0.290467 0.358451 0.740229 0 0 0 
0.291826 0.358306 0.740536 0 0 0 
0.293185 0.358160 0.740844 0 0 0 
0.294356 0.357501 0.740140 0 0 0 
0.295713 0.357356 0.740447 0 0 0 
0.296879 0.356698 0.739741 0 0 0 
0.297848 0.355528 0.738020 0 0 0 
0.299393 0.355896 0.739341 0 0 0 
0.300550 0.355239 0.738633 0 0 0 
0.301702 0.354582 0.737924 0 0 0 
0.303251 0.354950 0.739245 0 0 0 
0.304805 0.355316 0.740567 0 0 0 
0.306158 0.355171 0.740873 0 0 0 
0.307304 0.354516 0.740163 0 0 0 
-0.193542 0.407936 0.623624 0 0 0 
-0.192704 0.408381 0.624784 0 0 0 
-0.190851 0.407648 0.624233 0 0 0 
-0.190010 0.408093 0.625394 0 0 0 
-0.189666 0.409126 0.627412 0 0 0 
-0.187815 0.408393 0.626861 0 0 0 
-0.185968 0.407660 0.626310 0 0 0 
-0.185117 0.408104 0.627472 0 0 0 
-0.183274 0.407372 0.626920 0 0 0 
-0.182419 0.407815 0.628084 0 0 0 
-0.180580 0.407083 0.627530 0 0 0 
-0.179721 0.407526 0.628695 0 0 0 
-0.178372 0.407382 0.629001 0 0 0 
-0.177992 0.408411 0.631027 0 0 0 
-0.176639 0.408267 0.631333 0 0 0 
-0.175286 0.408122 0.631640 0 0 0 
-0.174890 0.409150 0.633669 0 0 0 
-0.173533 0.409004 0.633976 0 0 0 
-0.172177 0.408859 0.634284 0 0 0 
-0.171293 0.409299 0.635454 0 0 0 
-0.170405 0.409740 0.636625 0 0 0 
-0.168575 0.409009 0.636069 0 0 0 
-0.167217 0.408863 0.636377 0 0 0 
-0.165858 0.408718 0.636685 0 0 0 
-0.164963 0.409157 0.637858 0 0 0 
-0.164063 0.409596 0.639032 0 0 0 
-0.162701 0.409450 0.639340 0 0 0 
-0.161796 0.409888 0.640515 0 0 0 
-0.160431 0.409742 0.640824 0 0 0 
-0.159067 0.409596 0.641133 0 0 0 
-0.157251 0.408866 0.640575 0 0 0 
-0.155888 0.408720 0.640884 0 0 0 
-0.154526 0.408574 0.641192 0 0 0 
-0.153164 0.408428 0.641501 0 0 0 
-0.151801 0.408283 0.641810 0 0 0 
-0.151322 0.409302 0.643858 0 0 0 
-0.149956 0.409155 0.644168 0 0 0 
-0.149028 0.409591 0.645348 0 0 0 
-0.148096 0.410026 0.646529 0 0 0 
-0.146291 0.409298 0.645968 0 0 0 
-0.144491 0.408570 0.645406 0 0 0 
-0.143125 0.408424 0.645715 0 0 0 
-0.142187 0.408859 0.646898 0 0 0 
-0.139965 0.407550 0.645461 0 0 0 
-0.139026 0.407985 0.646644 0 0 0 
-0.137659 0.407839 0.646954 0 0 0 
-0.136714 0.408272 0.648138 0 0 0 
-0.135345 0.408126 0.648448 0 0 0 
-0.133977 0.407979 0.648758 0 0 0 
-0.133024 0.408412 0.649944 0 0 0 
-0.132067 0.408845 0.651130 0 0 0 
-0.130284 0.408119 0.650564 0 0 0 
-0.129323 0.408551 0.651752 0 0 0 
-0.127951 0.408404 0.652063 0 0 0 
-0.126578 0.408257 0.652374 0 0 0 
-0.125206 0.408111 0.652685 0 0 0 
-0.123834 0.407964 0.652996 0 0 0 
-0.122462 0.407817 0.653306 0 0 0 
-0.121488 0.408247 0.654497 0 0 0 
-0.119718 0.407523 0.653928 0 0 0 
-0.119133 0.408531 0.656000 0 0 0 
-0.117758 0.408383 0.656312 0 0 0 
-0.116382 0.408236 0.656624 0 0 0 
-0.115394 0.408665 0.657818 0 0 0 
-0.113630 0.407941 0.657247 0 0 0 
-0.111869 0.407218 0.656676 0 0 0 
-0.110495 0.407070 0.656988 0 0 0 
-0.109121 0.406923 0.657299 0 0 0 
-0.108126 0.407352 0.658494 0 0 0 
-0.105997 0.406054 0.657037 0 0 0 
-0.104625 0.405907 0.657348 0 0 0 
-0.101389 0.402885 0.653232 0 0 0 
-0.097802 0.399290 0.648225 0 0 0 
-0.092763 0.393399 0.639668 0 0 0 
-0.019659 0.282289 0.469047 0 0 0 
-0.018336 0.281612 0.468377 0 0 0 
-0.016655 0.280362 0.466818 0 0 0 
-0.016060 0.280833 0.467923 0 0 0 
-0.016175 0.282451 0.470806 0 0 0 
-0.015924 0.283495 0.472803 0 0 0 
-0.015665 0.284537 0.474801 0 0 0 
-0.015398 0.285579 0.476801 0 0 0 
-0.014774 0.286047 0.477913 0 0 0 
-0.014493 0.287087 0.479916 0 0 0 
-0.013859 0.287555 0.481029 0 0 0 
-0.013909 0.289165 0.483928 0 0 0 
-0.013264 0.289631 0.485044 0 0 0 
-0.013295 0.291240 0.487946 0 0 0 
-0.012300 0.291134 0.488172 0 0 0 
-0.012313 0.292740 0.491078 0 0 0 
-0.011647 0.293204 0.492199 0 0 0 
-0.011309 0.294238 0.494216 0 0 0 
-0.010633 0.294701 0.495339 0 0 0 
-0.009953 0.295163 0.496463 0 0 0 
-0.008942 0.295055 0.496691 0 0 0 
-0.007607 0.294377 0.496024 0 0 0 
-0.006599 0.294269 0.496253 0 0 0 
-0.005591 0.294161 0.496481 0 0 0 
-0.004264 0.293484 0.495812 0 0 0 
-0.003574 0.293945 0.496938 0 0 0 
-0.002251 0.293268 0.496268 0 0 0 
-0.001244 0.293161 0.496496 0 0 0 
-0.000238 0.293053 0.496724 0 0 0 
0.001078 0.292377 0.496052 0 0 0 
0.001775 0.292837 0.497180 0 0 0 
0.002782 0.292729 0.497408 0 0 0 
0.003788 0.292622 0.497636 0 0 0 
0.004795 0.292514 0.497864 0 0 0 
0.005801 0.292406 0.498092 0 0 0 
0.007105 0.291731 0.497418 0 0 0 
0.008405 0.291057 0.496742 0 0 0 
0.009408 0.290950 0.496970 0 0 0 
0.010411 0.290842 0.497197 0 0 0 
0.011413 0.290735 0.497424 0 0 0 
0.012704 0.290062 0.496746 0 0 0 
0.013991 0.289389 0.496068 0 0 0 
0.015274 0.288716 0.495389 0 0 0 
0.016270 0.288609 0.495615 0 0 0 
0.017548 0.287937 0.494934 0 0 0 
0.018821 0.287266 0.494253 0 0 0 
0.020367 0.286030 0.492663 0 0 0 
0.022180 0.284231 0.490165 0 0 0 
0.024526 0.281304 0.485847 0 0 0 
0.026582 0.278943 0.482433 0 0 0 
0.029161 0.275456 0.477198 0 0 0 
0.030649 0.274226 0.475596 0 0 0 
0.031865 0.273561 0.474901 0 0 0 
0.033076 0.272896 0.474206 0 0 0 
0.035329 0.269979 0.469867 0 0 0 
0.038080 0.265939 0.463701 0 0 0 
0.040289 0.263027 0.459353 0 0 0 
0.041459 0.262366 0.458648 0 0 0 
0.042371 0.262268 0.458854 0 0 0 
0.043032 0.262733 0.459974 0 0 0 
0.042948 0.264882 0.463834 0 0 0 
0.042384 0.268154 0.469526 0 0 0 
0.042580 0.269738 0.472480 0 0 0 
0.043763 0.269076 0.471778 0 0 0 
0.044700 0.268976 0.471990 0 0 0 
0.045638 0.268875 0.472203 0 0 0 
0.046099 0.269896 0.474247 0 0 0 
0.046804 0.270356 0.475376 0 0 0 
0.047044 0.271936 0.478341 0 0 0 
0.048458 0.270714 0.476721 0 0 0 
0.050093 0.268934 0.474182 0 0 0 
0.051261 0.268273 0.473477 0 0 0 
0.052198 0.268173 0.473689 0 0 0 
0.053360 0.267513 0.472982 0 0 0 
0.054072 0.267972 0.474114 0 0 0 
0.055009 0.267872 0.474326 0 0 0 
0.056384 0.266654 0.472698 0 0 0 
0.057534 0.265996 0.471988 0 0 0 
0.058251 0.266455 0.473121 0 0 0 
0.059397 0.265797 0.472411 0 0 0 
0.060117 0.266255 0.473544 0 0 0 
0.061051 0.266155 0.473755 0 0 0 
0.061570 0.267169 0.475812 0 0 0 
0.062712 0.266512 0.475101 0 0 0 
0.063647 0.266412 0.475313 0 0 0 
0.064381 0.266868 0.476449 0 0 0 
0.065119 0.267325 0.477586 0 0 0 
0.066058 0.267224 0.477799 0 0 0 
0.067193 0.266567 0.477086 0 0 0 
0.069292 0.263132 0.471743 0 0 0 
0.071560 0.259143 0.465468 0 0 0 
0.073422 0.256268 0.461040 0 0 0 
0.074700 0.255061 0.459390 0 0 0 
0.075599 0.254964 0.459594 0 0 0 
0.076314 0.255423 0.460725 0 0 0 
0.076668 0.256991 0.463715 0 0 0 
0.077033 0.258557 0.466708 0 0 0 
0.077232 0.260676 0.470632 0 0 0 
0.076741 0.265010 0.478280 0 0 0 
0.075757 0.271002 0.488725 0 0 0 
0.076024 0.273114 0.492665 0 0 0 
0.076646 0.274117 0.494746 0 0 0 
0.077277 0.275120 0.496829 0 0 0 
0.078416 0.274463 0.496117 0 0 0 
0.079056 0.275465 0.498202 0 0 0 
0.079867 0.275913 0.499355 0 0 0 
0.080520 0.276913 0.501443 0 0 0 
0.081182 0.277913 0.503533 0 0 0 
0.081694 0.279463 0.506558 0 0 0 
0.082372 0.280461 0.508652 0 0 0 
0.083059 0.281458 0.510747 0 0 0 
0.083904 0.281902 0.511908 0 0 0 
0.084903 0.281795 0.512135 0 0 0 
0.085754 0.282239 0.513297 0 0 0 
0.086609 0.282683 0.514461 0 0 0 
0.087612 0.282576 0.514688 0 0 0 
0.088473 0.283018 0.515853 0 0 0 
0.089617 0.282361 0.515143 0 0 0 
0.090620 0.282253 0.515370 0 0 0 
0.091894 0.281047 0.513719 0 0 0 
0.092893 0.280940 0.513945 0 0 0 
0.093892 0.280833 0.514171 0 0 0 
0.094761 0.281275 0.515338 0 0 0 
0.095505 0.282266 0.517446 0 0 0 
0.096130 0.283804 0.520498 0 0 0 
0.096767 0.285341 0.523552 0 0 0 
0.097171 0.287974 0.528492 0 0 0 
0.097594 0.290604 0.533437 0 0 0 
0.098510 0.291041 0.534615 0 0 0 
0.099664 0.290382 0.533907 0 0 0 
0.100814 0.289724 0.533197 0 0 0 
0.101848 0.289613 0.533431 0 0 0 
0.102881 0.289503 0.533666 0 0 0 
0.103806 0.289939 0.534845 0 0 0 
0.104948 0.289281 0.534134 0 0 0 
0.105981 0.289171 0.534368 0 0 0 
0.107325 0.287421 0.531763 0 0 0 
0.108758 0.285127 0.528208 0 0 0 
0.110374 0.281744 0.522755 0 0 0 
0.112260 0.276725 0.514453 0 0 0 
0.114875 0.267348 0.498558 0 0 0 
0.116957 0.260703 0.487392 0 0 0 
0.118535 0.256789 0.480960 0 0 0 
0.119726 0.255056 0.478320 0 0 0 
0.120730 0.254413 0.477578 0 0 0 
0.121644 0.254315 0.477785 0 0 0 
0.122390 0.255305 0.479894 0 0 0 
0.123061 0.256839 0.482955 0 0 0 
0.123264 0.261634 0.491730 0 0 0 
0.122718 0.271860 0.510034 0 0 0 
0.122551 0.279905 0.524544 0 0 0 
0.123111 0.283055 0.530490 0 0 0 
0.123839 0.285118 0.534535 0 0 0 
0.124653 0.286636 0.537629 0 0 0 
0.125479 0.288153 0.540725 0 0 0 
0.126383 0.289127 0.542870 0 0 0 
0.127294 0.290099 0.545016 0 0 0 
0.128339 0.289988 0.545253 0 0 0 
0.129323 0.290417 0.546446 0 0 0 
0.130311 0.290847 0.547639 0 0 0 
0.131360 0.290734 0.547877 0 0 0 
0.132409 0.290622 0.548115 0 0 0 
0.133511 0.289969 0.547394 0 0 0 
0.134558 0.289857 0.547632 0 0 0 
0.135703 0.288664 0.545951 0 0 0 
0.136794 0.288012 0.545229 0 0 0 
0.137926 0.286820 0.543545 0 0 0 
0.139050 0.285630 0.541860 0 0 0 
0.140167 0.284440 0.540174 0 0 0 
0.141276 0.283251 0.538485 0 0 0 
0.142378 0.282063 0.536795 0 0 0 
0.143471 0.280875 0.535103 0 0 0 
0.144591 0.279150 0.532447 0 0 0 
0.145700 0.277426 0.529789 0 0 0 
0.146796 0.275703 0.527128 0 0 0 
0.147854 0.274520 0.525428 0 0 0 
0.148903 0.273337 0.523726 0 0 0 
0.149920 0.272693 0.522986 0 0 0 
0.150956 0.271512 0.521281 0 0 0 
0.151985 0.270331 0.519574 0 0 0 
0.153024 0.268615 0.516900 0 0 0 
0.154035 0.267436 0.515190 0 0 0 
0.155053 0.265722 0.512511 0 0 0 
0.156033 0.265081 0.511763 0 0 0 
0.157021 0.263905 0.510047 0 0 0 
0.157992 0.263266 0.509297 0 0 0 
0.158967 0.262092 0.507578 0 0 0 
0.159928 0.261453 0.506826 0 0 0 
0.160886 0.260816 0.506073 0 0 0 
0.161838 0.260714 0.506289 0 0 0 
0.165612 0.368943 0.704027 0 0 0 
0.167083 0.379488 0.723758 0 0 0 
0.168482 0.380408 0.726014 0 0 0 
0.169878 0.380794 0.727301 0 0 0 
0.171265 0.380646 0.727615 0 0 0 
0.172667 0.381031 0.728902 0 0 0 
0.174040 0.380348 0.728244 0 0 0 
0.175446 0.380733 0.729532 0 0 0 
0.176815 0.380051 0.728872 0 0 0 
0.178203 0.379903 0.729187 0 0 0 
0.179566 0.379222 0.728526 0 0 0 
0.180952 0.379073 0.728840 0 0 0 
0.182338 0.378925 0.729154 0 0 0 
0.183723 0.378776 0.729468 0 0 0 
0.185077 0.378096 0.728804 0 0 0 
0.186461 0.377948 0.729118 0 0 0 
0.187845 0.377800 0.729432 0 0 0 
0.189228 0.377652 0.729745 0 0 0 
0.190612 0.377504 0.730058 0 0 0 
0.191996 0.377355 0.730372 0 0 0 
0.193422 0.377738 0.731665 0 0 0 
0.194808 0.377589 0.731979 0 0 0 
0.196193 0.377441 0.732293 0 0 0 
0.197530 0.376763 0.731626 0 0 0 
0.198863 0.376085 0.730958 0 0 0 
0.200245 0.375937 0.731271 0 0 0 
0.201681 0.376318 0.732566 0 0 0 
0.203008 0.375641 0.731897 0 0 0 
0.204332 0.374964 0.731227 0 0 0 
0.205711 0.374817 0.731540 0 0 0 
0.207029 0.374140 0.730868 0 0 0 
0.208407 0.373993 0.731181 0 0 0 
